# 3D point list with one line of data per point:
#   POINT3D_ID, X, Y, Z, R, G, B, ERROR, TRACK[] as (IMAGE_ID, POINT2D_IDX)
2161 -0.079116852 -0.864574036 -0.065617346 129 119 117 0.000000 3 544
2162 -0.076929763 -0.861220387 -0.061154947 143 133 131 0.000000 6 181
2163 -0.077312683 -0.855393840 -0.063651755 128 118 116 0.000000 3 545
2164 -0.076252026 -0.847277180 -0.064508104 125 117 114 0.000000 3 546
2165 -0.076307241 -0.841709897 -0.061288131 122 117 115 0.000000 5 394
2166 -0.075226924 -0.836260285 -0.063102944 121 117 118 0.000000 1 458
2167 -0.076956115 -0.827647454 -0.061399631 120 117 116 0.000000 1 459 5 395
2168 -0.078899255 -0.815084166 -0.063216805 120 119 119 0.000000 3 547
2169 -0.079559191 -0.815799648 -0.059665402 120 116 117 0.000000 5 396
2170 -0.078562687 -0.813227701 -0.064422974 130 126 128 0.000000 1 460 2 613
2171 -0.077798272 -0.807708248 -0.063687527 123 122 122 0.000000 3 548
2172 -0.076703145 -0.800462541 -0.064090342 119 122 121 0.000000 3 549
2173 -0.074660195 -1.139671006 -0.064391652 137 136 136 0.000000 3 550
2174 -0.073525137 -1.126323264 -0.066846929 137 136 136 0.000000 3 551
2175 -0.071485868 -1.120443405 -0.063011661 127 144 149 0.000000 6 182
2176 -0.071724394 -1.110066402 -0.066313615 139 136 133 0.000000 3 552
2177 -0.074245043 -1.086213020 -0.061216227 125 133 134 0.000000 5 397
2178 -0.074866624 -1.078713047 -0.064474443 139 136 133 0.000000 2 614
2179 -0.074329594 -1.070101803 -0.063903694 136 131 129 0.000000 2 615
2180 -0.071451968 -1.066968322 -0.061583544 126 129 130 0.000000 5 398
2181 -0.072926827 -1.065297306 -0.059995362 148 143 141 0.000000 7 658
2182 -0.072321857 -1.061148028 -0.062123982 125 124 122 0.000000 1 461 2 616 5 399
2183 -0.072495261 -1.059794713 -0.060607013 146 143 140 0.000000 7 659
2184 -0.072906493 -1.053812728 -0.062146785 130 127 125 0.000000 1 462 2 617 5 400 7 660
2185 -0.072029804 -1.047665526 -0.062176198 122 122 118 0.000000 1 463
2186 -0.072430892 -1.048350624 -0.059781681 148 143 139 0.000000 7 661
2187 -0.072557188 -1.042544018 -0.061926955 137 131 126 0.000000 1 464 2 618 7 662
2188 -0.074299912 -1.037558016 -0.065733272 138 130 127 0.000000 3 553
2189 -0.071992465 -1.036305086 -0.061749609 140 131 128 0.000000 2 619 7 663
2190 -0.072002036 -1.031932041 -0.061411173 132 128 124 0.000000 1 465 5 401 7 664
2191 -0.072952040 -1.025180538 -0.066557242 140 130 128 0.000000 3 554
2192 -0.073341365 -1.026748839 -0.063701514 124 118 112 0.000000 1 466 2 620
2193 -0.073242726 -1.023227122 -0.063420788 122 119 114 0.000000 5 402
2194 -0.071568017 -1.024855647 -0.059926742 151 140 135 0.000000 7 665
2195 -0.072887381 -1.018085016 -0.061912483 132 126 120 0.000000 1 467 2 621 5 403 7 666
2196 -0.071427884 -1.012402267 -0.066464022 144 134 132 0.000000 3 555
2197 -0.072590921 -1.010761990 -0.062847092 136 126 123 0.000000 2 622 4 180
2198 -0.071163018 -1.012680370 -0.059895809 153 142 137 0.000000 7 667
2199 -0.071157271 -1.006530538 -0.059379680 156 142 138 0.000000 7 668
2200 -0.072233414 -1.001573777 -0.062633033 134 124 121 0.000000 2 623 4 181
2201 -0.070775644 -1.000219902 -0.059795902 154 143 136 0.000000 7 669
2202 -0.071025243 -0.992408512 -0.061867780 136 126 122 0.000000 2 624 4 182 5 404 7 670
2203 -0.072063277 -0.987243028 -0.061774404 148 140 136 0.000000 6 183 7 671
2204 -0.071212138 -0.983169156 -0.063276802 122 114 110 0.000000 2 625 5 405
2205 -0.070040425 -0.980902180 -0.059980013 145 136 131 0.000000 7 672
2206 -0.071145232 -0.979781920 -0.063513816 131 121 119 0.000000 1 468
2207 -0.073432245 -0.972811074 -0.062820315 117 109 106 0.000000 1 469 4 183 5 406
2208 -0.072731495 -0.962927218 -0.062724799 114 106 102 0.000000 1 470 4 184 6 184
2209 -0.073178653 -0.955469645 -0.062853455 112 103 98 0.000000 1 471
2210 -0.070858962 -0.958845078 -0.026430645 20 37 21 0.000000 5 407
2211 -0.074515302 -0.957090770 -0.015852133 14 34 15 0.000000 5 408
2212 -0.072626696 -0.958818159 -0.012257963 28 47 29 0.000000 2 626 4 185
2213 -0.073550555 -0.955871735 -0.009905695 16 41 20 0.000000 1 472
2214 -0.071856126 -0.953889167 -0.062064642 107 100 94 0.000000 4 186
2215 -0.071328127 -0.953553816 -0.038110314 26 41 25 0.000000 6 185
2216 -0.071802168 -0.952690010 -0.022100482 18 38 19 0.000000 6 186
2217 -0.073145240 -0.951992518 -0.007621940 20 45 24 0.000000 2 627 5 409 6 187
2218 -0.072421925 -0.950673392 -0.004219654 22 49 29 0.000000 1 473
2219 -0.070616783 -0.950382100 0.000444425 41 63 47 0.000000 3 556
2220 -0.071386352 -0.949330013 -0.006004252 31 58 36 0.000000 4 187
2221 -0.070916678 -0.949028091 -0.003112773 24 49 30 0.000000 5 410
2222 -0.070178270 -0.944650668 -0.062298164 78 73 69 0.000000 5 411
2223 -0.072998836 -0.944023384 -0.050914071 30 38 27 0.000000 6 188
2224 -0.072535325 -0.943926488 -0.001653865 33 60 40 0.000000 1 474 2 628 6 189
2225 -0.071300812 -0.943723335 0.002662287 28 59 36 0.000000 5 412 7 673
2226 -0.070898842 -0.938091905 0.003660178 26 54 34 0.000000 1 475 5 413
2227 -0.072714055 -0.939763289 0.006898463 30 68 40 0.000000 7 674
2228 -0.071626100 -0.932432497 0.001371146 34 66 45 0.000000 4 188
2229 -0.072285632 -0.933812406 0.006587301 32 61 38 0.000000 1 476 7 675
2230 -0.074586825 -0.928860818 0.003925931 50 77 57 0.000000 3 557
2231 -0.071481939 -0.927809115 0.006081818 37 60 42 0.000000 1 477 5 414
2232 -0.071854625 -0.922402759 0.002300450 34 63 46 0.000000 3 558 4 189
2233 -0.072615296 -0.921894662 0.008017999 28 56 34 0.000000 5 415 7 676
2234 -0.071816812 -0.917999967 0.002173081 28 57 37 0.000000 1 478 4 190 6 190
2235 -0.073215854 -0.913842950 -0.000529483 30 57 39 0.000000 3 559
2236 -0.072915298 -0.907158760 -0.004015370 15 42 22 0.000000 3 560
2237 -0.074839748 -0.908527078 0.003000145 74 88 74 0.000000 1 479 6 191
2238 -0.073878325 -0.902789679 -0.011921545 11 33 15 0.000000 3 561
2239 -0.074579853 -0.897762259 -0.019045522 11 31 14 0.000000 3 562
2240 -0.074408760 -0.891760258 -0.065025995 97 92 90 0.000000 3 563
2241 -0.073168996 -0.882634193 -0.065282328 108 100 97 0.000000 3 564
2242 -0.073721457 -0.876716168 -0.063954547 107 97 95 0.000000 2 629
2243 -0.071714679 -0.873347975 -0.064496428 125 117 116 0.000000 3 565
2244 -0.072845225 -0.867009854 -0.062802702 127 119 117 0.000000 1 480 2 630
2245 -0.070491504 -0.864590843 -0.064560358 129 119 117 0.000000 3 566
2246 -0.073157379 -0.857724327 -0.062214427 138 130 129 0.000000 1 481 2 631 7 677
2247 -0.073406408 -0.847721962 -0.063452579 130 122 122 0.000000 1 482 2 632
2248 -0.071877127 -0.840282910 -0.063538414 139 129 129 0.000000 2 633
2249 -0.074954266 -0.839044729 -0.064299311 125 117 114 0.000000 3 567
2250 -0.072585760 -0.830953682 -0.063958620 134 127 128 0.000000 2 634 3 568
2251 -0.071878708 -0.822407256 -0.064461425 134 128 128 0.000000 2 635 3 569
2252 -0.071347856 -0.815569966 -0.064160865 126 121 119 0.000000 3 570
2253 -0.070384462 -0.812918359 -0.062724027 141 135 137 0.000000 2 636
2254 -0.070080347 -0.808010275 -0.063601220 123 123 119 0.000000 3 571
2255 -0.072616885 -0.798547514 -0.062626822 125 122 119 0.000000 5 416
2256 -0.074063702 -0.784856223 -0.061388106 119 118 118 0.000000 5 417
2257 -0.067501298 -1.103266684 -0.060158022 131 143 145 0.000000 6 192
2258 -0.069771867 -1.093407788 -0.064863385 139 136 133 0.000000 3 572
2259 -0.066707645 -1.086648569 -0.061364021 133 136 139 0.000000 2 637 5 418
2260 -0.069012704 -1.082192025 -0.061748552 130 138 140 0.000000 5 419 6 193
2261 -0.065260891 -1.078952728 -0.065538716 178 128 37 0.000000 4 191
2262 -0.067811183 -1.077571987 -0.063321950 133 133 131 0.000000 1 483 2 638 3 573
2263 -0.067700369 -1.072014886 -0.062024391 133 133 133 0.000000 2 639 5 420
2264 -0.069919150 -1.068444189 -0.061821828 118 124 124 0.000000 1 484
2265 -0.066610420 -1.066173041 -0.059922138 148 143 141 0.000000 7 678
2266 -0.066746735 -1.064790355 -0.065144091 139 131 128 0.000000 3 574
2267 -0.066367895 -1.062075925 -0.061950918 136 134 132 0.000000 2 640 5 421 6 194 7 679
2268 -0.065335433 -1.051246764 -0.065448639 139 132 126 0.000000 3 575
2269 -0.066381607 -1.054234750 -0.060489018 136 134 130 0.000000 5 422 7 680
2270 -0.066873219 -1.047780667 -0.060908291 140 134 130 0.000000 5 423 7 681
2271 -0.066236551 -1.042664496 -0.061395408 140 134 130 0.000000 1 485 6 195 7 682
2272 -0.069548632 -1.039123284 -0.061443026 128 125 122 0.000000 5 424
2273 -0.065549653 -1.037277299 -0.059640843 151 142 135 0.000000 7 683
2274 -0.065526333 -1.032283878 -0.061071006 138 130 124 0.000000 1 486 7 684
2275 -0.066868865 -1.025912362 -0.063072977 127 120 114 0.000000 1 487
2276 -0.065428371 -1.023631920 -0.062955871 125 120 118 0.000000 5 425
2277 -0.066808397 -1.017353062 -0.061981315 128 120 116 0.000000 1 488 5 426
2278 -0.068199348 -1.010975734 -0.062996289 131 122 117 0.000000 1 489
2279 -0.067651034 -1.008129194 -0.061759101 130 122 119 0.000000 5 427
2280 -0.068606198 -1.003485781 -0.061903291 132 122 120 0.000000 1 490
2281 -0.068449863 -0.998205178 -0.062636396 136 127 125 0.000000 1 491 5 428 6 196
2282 -0.069946919 -0.988031112 -0.061678489 133 123 121 0.000000 1 492
2283 -0.069561053 -0.975423289 -0.063626473 119 110 105 0.000000 2 641
2284 -0.067297445 -0.974189408 -0.061847871 129 120 117 0.000000 5 429 6 197 7 685
2285 -0.069014895 -0.966665678 -0.063046023 114 105 100 0.000000 2 642
2286 -0.069698583 -0.967704966 -0.059701919 123 114 107 0.000000 7 686
2287 -0.067128774 -0.964081875 -0.062385204 104 97 91 0.000000 5 430
2288 -0.069719275 -0.961127346 -0.059082327 118 111 103 0.000000 7 687
2289 -0.068289626 -0.956692775 -0.062101283 104 96 92 0.000000 2 643 5 431
2290 -0.069233755 -0.959766363 -0.020257518 29 49 32 0.000000 1 493
2291 -0.066659737 -0.957204459 -0.018878944 24 42 24 0.000000 4 192 5 432
2292 -0.069742905 -0.954502194 -0.058451240 64 70 53 0.000000 7 688
2293 -0.066901729 -0.953499883 -0.011810664 18 40 20 0.000000 1 494 5 433
2294 -0.065383758 -0.952239393 -0.008001487 19 41 21 0.000000 2 644
2295 -0.066490960 -0.947881404 -0.028839444 20 37 21 0.000000 6 198
2296 -0.065667671 -0.948551037 -0.012087760 18 44 24 0.000000 4 193 6 199
2297 -0.065984799 -0.948233429 -0.006836269 20 46 26 0.000000 1 495 5 434
2298 -0.066335009 -0.943984796 -0.058960609 66 61 57 0.000000 4 194
2299 -0.066729911 -0.942047373 -0.004227648 30 58 38 0.000000 1 496 4 195
2300 -0.069135142 -0.940488228 0.000913426 25 57 34 0.000000 3 576
2301 -0.069747358 -0.937194666 -0.060439024 63 58 54 0.000000 6 200
2302 -0.066545437 -0.939071509 -0.007453137 26 55 35 0.000000 6 201
2303 -0.067767125 -0.938042643 0.001330243 28 54 34 0.000000 1 497 2 645
2304 -0.067018323 -0.930274135 -0.002294142 30 62 39 0.000000 6 202
2305 -0.067470683 -0.930954026 0.002764665 24 48 29 0.000000 1 498 2 646 3 577
2306 -0.065266375 -0.931949703 0.005266618 32 65 37 0.000000 7 689
2307 -0.065087106 -0.927353114 0.003612059 22 51 29 0.000000 5 435
2308 -0.066055425 -0.927110847 0.007342882 34 56 25 0.000000 7 690
2309 -0.066894564 -0.922938801 -0.000358527 23 52 32 0.000000 3 578
2310 -0.067589267 -0.924204262 0.003176285 20 42 22 0.000000 1 499 2 647
2311 -0.066381496 -0.921834797 0.008618923 65 65 41 0.000000 7 691
2312 -0.065693655 -0.916663154 -0.059287196 49 47 39 0.000000 4 196
2313 -0.066097287 -0.915943998 -0.003921072 24 52 32 0.000000 3 579 4 197
2314 -0.067468457 -0.917176260 0.003110960 19 44 23 0.000000 1 500 2 648 5 436
2315 -0.067262336 -0.907642985 -0.060479853 99 94 90 0.000000 4 198
2316 -0.066678244 -0.907745275 -0.050116603 57 54 49 0.000000 4 199
2317 -0.067249577 -0.908544959 -0.006415856 16 42 22 0.000000 3 580 4 200
2318 -0.069388475 -0.907786139 -0.001952086 13 35 17 0.000000 2 649
2319 -0.068542539 -0.908725729 0.000630826 20 40 21 0.000000 1 501
2320 -0.067061131 -0.901803986 -0.065498219 92 89 84 0.000000 3 581
2321 -0.066437617 -0.903553769 -0.012719569 11 33 15 0.000000 3 582
2322 -0.065696959 -0.904908153 -0.000223960 138 135 130 0.000000 6 203
2323 -0.065742796 -0.899718651 -0.022168738 26 41 25 0.000000 4 201
2324 -0.068492435 -0.899170782 -0.017728532 17 36 19 0.000000 3 583 4 202
2325 -0.069599622 -0.899700785 -0.004413118 77 78 72 0.000000 2 650
2326 -0.065910591 -0.892478769 -0.065857508 102 94 93 0.000000 3 584
2327 -0.068313694 -0.894551312 -0.029797768 48 46 38 0.000000 3 585
2328 -0.067992845 -0.879164764 -0.060184930 126 116 114 0.000000 6 204
2329 -0.069055728 -0.855716961 -0.063559419 126 116 114 0.000000 3 586
2330 -0.065774649 -0.856398120 -0.059976513 149 144 142 0.000000 7 692
2331 -0.066809426 -0.846949556 -0.063491472 126 118 116 0.000000 1 502 3 587
2332 -0.066355888 -0.842508189 -0.061182880 125 120 116 0.000000 5 437
2333 -0.067426106 -0.837219704 -0.063484522 128 122 120 0.000000 1 503 3 588 4 203
2334 -0.065894353 -0.831523728 -0.064918933 128 120 119 0.000000 3 589
2335 -0.067533404 -0.830456407 -0.059770181 127 119 116 0.000000 5 438
2336 -0.066977504 -0.827173402 -0.062264415 129 126 127 0.000000 1 504 4 204
2337 -0.067865584 -0.817289725 -0.061439128 130 128 128 0.000000 4 205 5 439
2338 -0.068269532 -0.814865439 -0.064048265 123 122 122 0.000000 1 505
2339 -0.069058723 -0.800761692 -0.064004856 123 122 122 0.000000 3 590
2340 -0.063169062 -1.140120691 -0.064263150 137 137 137 0.000000 3 591
2341 -0.061987161 -1.125975769 -0.066006602 139 138 138 0.000000 3 592
2342 -0.064555152 -1.128227802 -0.061833580 132 144 150 0.000000 6 205
2343 -0.060527276 -1.110504581 -0.066188400 139 139 135 0.000000 3 593
2344 -0.063388767 -1.111172836 -0.061443019 126 143 146 0.000000 6 206
2345 -0.063124745 -1.107532595 -0.063486724 135 141 141 0.000000 4 206
2346 -0.061315773 -1.096560210 -0.062589908 136 139 140 0.000000 4 207
2347 -0.063553819 -1.093056596 -0.062222655 134 142 143 0.000000 6 207
2348 -0.061334560 -1.086786768 -0.062135072 135 136 136 0.000000 4 208 5 440
2349 -0.061692010 -1.080261618 -0.060744136 126 131 136 0.000000 5 441
2350 -0.062447361 -1.074313613 -0.061227517 129 133 134 0.000000 1 506 5 442 6 208
2351 -0.063430024 -1.067806208 -0.061295171 122 126 126 0.000000 1 507 5 443
2352 -0.063575235 -1.061605621 -0.062793427 119 119 119 0.000000 1 508
2353 -0.060097208 -1.061293282 -0.059323709 146 141 137 0.000000 7 693
2354 -0.063239426 -1.054210221 -0.062373844 131 127 123 0.000000 1 509 2 651 6 209
2355 -0.062835027 -1.047049855 -0.061804196 126 124 120 0.000000 1 510 5 444
2356 -0.064079941 -1.044796343 -0.062349298 132 123 118 0.000000 2 652
2357 -0.064099334 -1.038625770 -0.066398475 139 130 125 0.000000 3 594
2358 -0.062848023 -1.037924605 -0.061864145 128 122 117 0.000000 2 653 5 445
2359 -0.063307409 -1.031997623 -0.061066484 129 121 118 0.000000 5 446
2360 -0.064011080 -1.026559045 -0.061894575 140 130 124 0.000000 2 654 7 694
2361 -0.062385440 -1.024300378 -0.064857874 144 133 128 0.000000 3 595
2362 -0.063726963 -1.019166876 -0.061346078 140 129 123 0.000000 2 655 7 695
2363 -0.061333327 -1.012797299 -0.066351137 147 136 131 0.000000 3 596
2364 -0.061487368 -1.010783925 -0.062915056 130 120 114 0.000000 1 511 2 656
2365 -0.064613986 -1.012937308 -0.059503196 154 140 136 0.000000 7 696
2366 -0.060088892 -1.008179718 -0.062233647 133 123 121 0.000000 5 447
2367 -0.064591701 -1.006717937 -0.058957193 153 142 137 0.000000 7 697
2368 -0.060128454 -1.000870767 -0.066938802 147 138 133 0.000000 3 597
2369 -0.062252734 -1.001901146 -0.061809432 137 127 122 0.000000 1 512 2 657 7 698
2370 -0.061597010 -0.997653047 -0.062199701 134 124 122 0.000000 1 513 5 448
2371 -0.062277882 -0.992313845 -0.063203106 128 118 115 0.000000 2 658 5 449
2372 -0.063759355 -0.993866047 -0.059681634 152 141 134 0.000000 7 699
2373 -0.062752855 -0.987624148 -0.060715035 144 132 128 0.000000 1 514 7 700
2374 -0.062598656 -0.983677678 -0.062669267 126 116 113 0.000000 2 659 5 450
2375 -0.063345866 -0.980816710 -0.059400137 149 140 135 0.000000 7 701
2376 -0.062014831 -0.977830564 -0.063519898 130 119 116 0.000000 1 515 2 660
2377 -0.062007072 -0.971686190 -0.063937736 136 124 120 0.000000 1 516 4 209
2378 -0.062948787 -0.974081807 -0.059687635 138 129 124 0.000000 7 702
2379 -0.060229503 -0.967202929 -0.063206557 119 110 105 0.000000 2 661
2380 -0.062557584 -0.967251840 -0.059952141 131 122 117 0.000000 7 703
2381 -0.064509725 -0.963585584 -0.062836234 120 113 107 0.000000 1 517
2382 -0.062563206 -0.960580916 -0.059296927 121 114 106 0.000000 7 704
2383 -0.064900910 -0.955647979 -0.061614509 114 107 101 0.000000 1 518
2384 -0.062718881 -0.957933226 -0.027927701 39 49 35 0.000000 4 210 5 451
2385 -0.063018096 -0.958840696 -0.022927068 43 56 41 0.000000 1 519
2386 -0.063673082 -0.950405080 -0.061206783 115 105 103 0.000000 6 210
2387 -0.062182284 -0.953584587 -0.059521198 75 76 65 0.000000 7 705
2388 -0.063138456 -0.952492122 -0.023105626 16 33 17 0.000000 5 452
2389 -0.061828061 -0.953575640 -0.016179393 24 41 25 0.000000 1 520
2390 -0.061124933 -0.945795550 -0.061181271 96 89 83 0.000000 5 453
2391 -0.061467357 -0.949349188 -0.017000230 16 38 18 0.000000 4 211 5 454
2392 -0.060898744 -0.948214487 -0.010452709 18 43 24 0.000000 1 521
2393 -0.063484302 -0.945958365 -0.002283236 22 48 26 0.000000 2 662 7 706
2394 -0.061693029 -0.942522358 -0.036243717 21 36 20 0.000000 6 211
2395 -0.060909370 -0.942958979 -0.019187718 16 38 20 0.000000 6 212
2396 -0.061009038 -0.941097037 -0.009235625 24 50 30 0.000000 1 522 4 212
2397 -0.063275946 -0.942387967 -0.001883421 25 50 28 0.000000 3 598 5 455
2398 -0.064145378 -0.942159672 0.001891322 24 59 32 0.000000 7 707
2399 -0.062174441 -0.936372508 -0.060174691 66 62 55 0.000000 5 456
2400 -0.061654953 -0.937298536 -0.001993552 22 48 28 0.000000 1 523 2 663
2401 -0.064301985 -0.936197636 0.002674301 25 56 30 0.000000 5 457 7 708
2402 -0.061677809 -0.934489418 -0.056372232 49 45 38 0.000000 4 213
2403 -0.061552509 -0.931867488 -0.002017649 25 54 33 0.000000 1 524 3 599 4 214
2404 -0.062555732 -0.930900809 0.000408086 22 47 28 0.000000 2 664
2405 -0.061454919 -0.925504028 -0.056472348 40 35 31 0.000000 4 215
2406 -0.060076708 -0.925358133 -0.003671267 21 48 26 0.000000 3 600
2407 -0.061634445 -0.924027490 -0.060235708 66 58 55 0.000000 6 213
2408 -0.062386014 -0.923602912 -0.001341416 20 44 24 0.000000 1 525 2 665 4 216
2409 -0.060841065 -0.916192451 -0.010729230 14 36 18 0.000000 4 217
2410 -0.062628856 -0.915736487 -0.002812747 18 42 22 0.000000 2 666 6 214
2411 -0.061817988 -0.914798946 -0.001947284 19 41 21 0.000000 1 526
2412 -0.061070732 -0.914789446 0.000363889 23 45 25 0.000000 5 458
2413 -0.061655052 -0.905196398 -0.048239778 113 105 104 0.000000 6 215
2414 -0.063414724 -0.908118970 -0.012233766 12 37 18 0.000000 4 218
2415 -0.062599717 -0.907597533 -0.005042645 17 34 18 0.000000 2 667
2416 -0.062216927 -0.907709297 -0.000968737 52 56 49 0.000000 1 527
2417 -0.060059686 -0.900586337 -0.023345948 21 36 20 0.000000 3 601
2418 -0.062419471 -0.899574481 -0.029297854 44 49 37 0.000000 4 219
2419 -0.064972398 -0.886665099 -0.062741977 95 88 82 0.000000 2 668
2420 -0.064569022 -0.882970738 -0.065186156 117 109 106 0.000000 3 602
2421 -0.064764762 -0.877263895 -0.064118212 114 105 100 0.000000 2 669
2422 -0.063237211 -0.873679725 -0.064401626 131 122 117 0.000000 3 603
2423 -0.064053658 -0.867239263 -0.062741860 130 120 120 0.000000 1 528 2 670
2424 -0.062112042 -0.864918758 -0.064466652 130 121 116 0.000000 3 604
2425 -0.063528179 -0.856671285 -0.062896584 129 120 118 0.000000 1 529 2 671 3 605 5 459
2426 -0.063431340 -0.849810790 -0.064297975 136 126 124 0.000000 2 672
2427 -0.064497498 -0.849688100 -0.057916507 143 133 131 0.000000 6 216
2428 -0.062871489 -0.840833630 -0.063702973 139 128 132 0.000000 2 673
2429 -0.062477097 -0.831473686 -0.064082271 142 132 132 0.000000 2 674
2430 -0.063204228 -0.822940772 -0.063503762 133 128 128 0.000000 2 675 3 606
2431 -0.063531925 -0.815875829 -0.064073461 129 121 120 0.000000 3 607
2432 -0.061516768 -0.813039003 -0.063860100 140 134 136 0.000000 2 676
2433 -0.062576975 -0.808472456 -0.064557145 126 123 120 0.000000 3 608
2434 -0.061631217 -0.800635161 -0.062918848 124 122 120 0.000000 3 609 5 460
2435 -0.063149958 -0.786561290 -0.060713771 122 118 119 0.000000 5 461
2436 -0.058392252 -1.118972904 -0.061826270 129 143 147 0.000000 6 217
2437 -0.057851498 -1.101476792 -0.062109068 133 144 144 0.000000 6 218
2438 -0.058795262 -1.093837338 -0.064740636 141 136 134 0.000000 3 610
2439 -0.057644634 -1.087397887 -0.062294646 148 143 141 0.000000 2 677
2440 -0.056890390 -1.083151265 -0.062063505 135 141 139 0.000000 6 219
2441 -0.056564798 -1.077634798 -0.063286554 136 134 131 0.000000 1 530 2 678 3 611
2442 -0.056460506 -1.072427151 -0.062016643 137 134 134 0.000000 2 679 5 462
2443 -0.056229592 -1.065913977 -0.065783096 139 131 128 0.000000 3 612
2444 -0.057588828 -1.067628716 -0.061535438 133 133 131 0.000000 1 531 5 463 7 709
2445 -0.056090678 -1.062691175 -0.062629758 134 130 127 0.000000 1 532 2 680 6 220
2446 -0.057942087 -1.060933483 -0.059953052 129 128 128 0.000000 5 464
2447 -0.059595082 -1.055583837 -0.059833107 149 141 138 0.000000 7 710
2448 -0.057375520 -1.054155812 -0.062039394 130 125 121 0.000000 1 533 2 681 5 465
2449 -0.056334499 -1.046418791 -0.062096859 128 122 116 0.000000 1 534 2 682
2450 -0.059531289 -1.049698951 -0.059354945 150 141 136 0.000000 7 711
2451 -0.057836865 -1.040397357 -0.061747589 125 118 112 0.000000 1 535
2452 -0.059039445 -1.043823144 -0.059824107 150 141 134 0.000000 7 712
2453 -0.056880418 -1.037464105 -0.062115722 142 130 123 0.000000 2 683 7 713
2454 -0.057403089 -1.032451316 -0.061017315 137 126 122 0.000000 1 536 5 466 7 714
2455 -0.058660984 -1.025737170 -0.061487278 140 129 122 0.000000 1 537 7 715
2456 -0.057662962 -1.024036391 -0.062487883 128 120 117 0.000000 5 467
2457 -0.058660648 -1.017585333 -0.062118993 134 124 120 0.000000 1 538 4 220 5 468
2458 -0.057981046 -1.019446183 -0.059599182 153 139 133 0.000000 7 716
2459 -0.057515639 -1.013142588 -0.059964881 154 140 134 0.000000 7 717
2460 -0.057394282 -1.008326803 -0.062186468 143 133 131 0.000000 4 221
2461 -0.057478285 -1.006829914 -0.059383256 152 141 134 0.000000 7 718
2462 -0.057023160 -1.000359958 -0.059708720 153 142 135 0.000000 7 719
2463 -0.057220463 -0.998927380 -0.062299794 142 132 130 0.000000 4 222
2464 -0.057668828 -0.991899719 -0.061756588 148 137 134 0.000000 4 223 7 720
2465 -0.057119746 -0.987697124 -0.060789327 150 140 136 0.000000 6 221 7 721
2466 -0.057632521 -0.982013431 -0.062878304 138 126 124 0.000000 4 224 5 469
2467 -0.056109337 -0.980560753 -0.059645821 150 141 136 0.000000 7 722
2468 -0.055149202 -0.979810049 -0.061999319 138 126 124 0.000000 1 539
2469 -0.056591821 -0.972812332 -0.062340330 128 118 115 0.000000 1 540 5 470
2470 -0.055676244 -0.973734306 -0.059885066 145 136 131 0.000000 7 723
2471 -0.055249025 -0.966812796 -0.060101320 138 129 124 0.000000 7 724
2472 -0.058242393 -0.962968840 -0.063308799 128 116 113 0.000000 1 541 4 225 5 471 6 222
2473 -0.055239578 -0.960048568 -0.059410484 135 126 121 0.000000 7 725
2474 -0.058836924 -0.956440930 -0.062067436 114 105 101 0.000000 1 542 2 684 5 472
2475 -0.058899706 -0.953010551 -0.064473476 125 115 113 0.000000 4 226
2476 -0.055195945 -0.950156744 -0.032883991 27 40 25 0.000000 4 227
2477 -0.057156358 -0.950194760 -0.026750801 16 33 19 0.000000 5 473
2478 -0.055589291 -0.952579079 -0.018827936 31 46 30 0.000000 1 543
2479 -0.058519111 -0.948206598 -0.062527808 111 103 98 0.000000 1 544 2 685
2480 -0.058660727 -0.949863351 -0.025687188 18 38 19 0.000000 4 228
2481 -0.055781447 -0.945531338 -0.020562711 12 32 15 0.000000 5 474
2482 -0.055481993 -0.946152824 -0.015942866 18 40 22 0.000000 1 545
2483 -0.058182856 -0.945346925 -0.007630017 15 41 20 0.000000 2 686 5 475
2484 -0.055231587 -0.943462071 -0.062351348 121 113 110 0.000000 4 229
2485 -0.056877579 -0.940703053 -0.016352400 14 39 20 0.000000 4 230
2486 -0.057833147 -0.936077836 -0.062894506 112 102 100 0.000000 6 223
2487 -0.058763166 -0.935597674 -0.045501741 22 34 24 0.000000 6 224
2488 -0.057722932 -0.936491817 -0.027555799 12 32 15 0.000000 6 225
2489 -0.059100633 -0.935679260 -0.012396652 21 46 25 0.000000 6 226
2490 -0.058008465 -0.938207355 -0.005922253 17 42 22 0.000000 2 687 5 476
2491 -0.055030451 -0.934428119 -0.062438433 121 111 111 0.000000 4 231
2492 -0.058655524 -0.932253202 -0.009113656 28 53 34 0.000000 4 232
2493 -0.057550216 -0.931451731 -0.003335207 21 44 25 0.000000 2 688 5 477
2494 -0.059550167 -0.926835808 -0.007219414 30 57 35 0.000000 6 227
2495 -0.055206664 -0.924246091 -0.016097126 13 33 16 0.000000 4 233
2496 -0.059256485 -0.924212830 -0.009690943 16 43 23 0.000000 4 234
2497 -0.056854149 -0.922706603 -0.003072557 18 40 19 0.000000 1 546 2 689 5 478
2498 -0.059238515 -0.916459275 -0.052230004 82 74 71 0.000000 6 228
2499 -0.056776773 -0.916176816 -0.017155441 15 30 12 0.000000 4 235
2500 -0.057288660 -0.918568176 -0.006232154 18 42 21 0.000000 3 613 5 479
2501 -0.055244554 -0.915869537 -0.003697702 17 34 16 0.000000 2 690
2502 -0.059300987 -0.911651828 -0.064948654 89 86 81 0.000000 3 614
2503 -0.059459983 -0.911642522 -0.010824125 14 36 16 0.000000 3 615
2504 -0.055984646 -0.912252106 -0.007465535 27 44 26 0.000000 1 547 6 229
2505 -0.057035479 -0.907602515 -0.064364472 180 121 13 0.000000 4 236
2506 -0.057424448 -0.907888754 -0.035406782 22 35 20 0.000000 4 237
2507 -0.057996162 -0.907974784 -0.026712844 18 33 17 0.000000 4 238
2508 -0.059540305 -0.907116903 -0.017873809 13 32 14 0.000000 3 616 4 239
2509 -0.055488021 -0.907629929 -0.007150269 70 66 59 0.000000 2 691
2510 -0.058240645 -0.902149160 -0.065399581 101 93 90 0.000000 3 617
2511 -0.059700318 -0.895993191 -0.059398055 117 107 105 0.000000 6 230
2512 -0.057363419 -0.893199199 -0.066688474 113 105 102 0.000000 3 618
2513 -0.056064647 -0.887209833 -0.062904748 108 99 94 0.000000 2 692
2514 -0.055794714 -0.882949894 -0.064150160 131 122 117 0.000000 3 619
2515 -0.055659475 -0.878070936 -0.063299045 119 110 105 0.000000 2 693
2516 -0.055359646 -0.867220092 -0.063133073 132 122 120 0.000000 1 548 2 694
2517 -0.058442274 -0.865567049 -0.059192096 142 133 128 0.000000 6 231
2518 -0.056219037 -0.855682613 -0.062891609 132 122 120 0.000000 1 549
2519 -0.057764934 -0.853981492 -0.060344465 148 143 141 0.000000 7 726
2520 -0.058428979 -0.846792339 -0.063745931 128 119 118 0.000000 1 550 3 620
2521 -0.056168945 -0.844039860 -0.060362686 127 119 116 0.000000 5 480
2522 -0.058158147 -0.837877734 -0.063318066 128 118 117 0.000000 1 551 3 621
2523 -0.057689431 -0.831611043 -0.063821332 129 121 120 0.000000 3 622
2524 -0.057509556 -0.831276251 -0.059682010 129 121 118 0.000000 5 481
2525 -0.058488807 -0.825211946 -0.063595955 126 123 120 0.000000 1 552
2526 -0.056795299 -0.823922669 -0.064452969 129 121 120 0.000000 3 623
2527 -0.057701574 -0.816057054 -0.062449243 128 122 119 0.000000 3 624 5 482
2528 -0.059250982 -0.814772489 -0.063749947 125 121 122 0.000000 1 553
2529 -0.051920571 -1.142202387 -0.065537305 140 139 143 0.000000 3 625
2530 -0.050738880 -1.127214964 -0.066592116 140 140 140 0.000000 3 626
2531 -0.051632182 -1.126681900 -0.060489194 127 143 151 0.000000 6 232
2532 -0.050430857 -1.109857708 -0.060283917 131 143 145 0.000000 6 233
2533 -0.051347864 -1.091793096 -0.062008312 134 142 141 0.000000 6 234
2534 -0.053680648 -1.086676376 -0.060370559 127 132 137 0.000000 5 483
2535 -0.054653402 -1.080492693 -0.060130289 130 133 134 0.000000 5 484
2536 -0.050207871 -1.067562625 -0.060855717 130 129 129 0.000000 5 485
2537 -0.053600601 -1.067956196 -0.059548343 150 142 139 0.000000 7 727
2538 -0.052073122 -1.061614769 -0.060207771 140 136 132 0.000000 5 486 7 728
2539 -0.052518444 -1.056449284 -0.060493626 148 140 137 0.000000 7 729
2540 -0.053703418 -1.052350553 -0.063180253 136 129 122 0.000000 3 627 5 487
2541 -0.052439582 -1.050471094 -0.059979841 149 140 135 0.000000 7 730
2542 -0.051813607 -1.047153723 -0.061823211 126 120 112 0.000000 1 554 5 488
2543 -0.051254161 -1.042410951 -0.061474102 136 126 119 0.000000 1 555 7 731
2544 -0.053943705 -1.038775540 -0.062575080 134 126 119 0.000000 3 628 5 489
2545 -0.051840204 -1.038406724 -0.059858227 151 136 126 0.000000 7 732
2546 -0.051240893 -1.032678660 -0.061406046 138 125 118 0.000000 1 556 7 733
2547 -0.052350603 -1.026686506 -0.061848333 136 123 116 0.000000 1 557 2 695 7 734
2548 -0.052192878 -1.024699246 -0.064743894 142 131 124 0.000000 3 629
2549 -0.051971310 -1.018710286 -0.061600630 134 122 117 0.000000 1 558 2 696 5 490 7 735
2550 -0.051101730 -1.012572602 -0.065434789 146 134 132 0.000000 3 630
2551 -0.052329589 -1.011830535 -0.062356209 138 126 120 0.000000 1 559 2 697 7 736
2552 -0.051830234 -1.009024344 -0.060891447 135 124 119 0.000000 5 491
2553 -0.050156405 -1.001261005 -0.066827288 146 139 133 0.000000 3 631
2554 -0.052775322 -1.001679125 -0.062046062 135 124 122 0.000000 1 560 2 698 5 492 6 235
2555 -0.053999883 -0.995502211 -0.062297931 135 124 119 0.000000 1 561
2556 -0.053761068 -0.992797652 -0.062583471 130 120 116 0.000000 2 699 5 493
2557 -0.053306093 -0.986528020 -0.061842774 130 120 116 0.000000 1 562 2 700
2558 -0.051310538 -0.976320792 -0.062152432 134 124 120 0.000000 2 701 6 236
2559 -0.051444112 -0.967740180 -0.063367092 122 113 108 0.000000 2 702
2560 -0.050559567 -0.964692639 -0.062557397 121 111 109 0.000000 5 494
2561 -0.051053295 -0.957567060 -0.061860290 118 108 104 0.000000 2 703 5 495
2562 -0.050351794 -0.950224959 -0.062206191 118 111 105 0.000000 2 704
2563 -0.054822641 -0.952960696 -0.059586502 129 120 115 0.000000 7 737
2564 -0.052486809 -0.946395460 -0.060880829 111 101 99 0.000000 5 496
2565 -0.053165575 -0.942013887 -0.041314112 28 38 26 0.000000 4 240
2566 -0.053980234 -0.941517000 -0.032480337 18 33 19 0.000000 4 241
2567 -0.054577542 -0.941018109 -0.023844912 13 33 16 0.000000 4 242
2568 -0.054470303 -0.941053789 -0.012429422 15 38 20 0.000000 1 563 5 497
2569 -0.052103407 -0.937201160 -0.061492135 115 106 101 0.000000 1 564 5 498
2570 -0.054290685 -0.937493278 -0.007549936 28 49 27 0.000000 3 632
2571 -0.050289180 -0.930721237 -0.059235987 122 113 108 0.000000 1 565
2572 -0.054712304 -0.933529910 -0.042451753 20 33 20 0.000000 4 243
2573 -0.053476897 -0.930452473 -0.035509401 19 34 20 0.000000 6 237
2574 -0.052757239 -0.932974715 -0.032069685 14 29 15 0.000000 4 244
2575 -0.053307394 -0.932621679 -0.023456823 10 27 11 0.000000 4 245
2576 -0.054181124 -0.931499151 -0.017261414 14 36 18 0.000000 4 246 6 238
2577 -0.054133194 -0.934633744 -0.010682522 18 39 17 0.000000 5 499
2578 -0.054539217 -0.934578353 -0.007394948 18 43 22 0.000000 1 566
2579 -0.054825674 -0.925442896 -0.062522020 121 113 110 0.000000 4 247
2580 -0.053753553 -0.928597197 -0.057209818 87 79 76 0.000000 5 500
2581 -0.054043337 -0.927959963 -0.006998164 19 43 20 0.000000 1 567 3 633 5 501
2582 -0.051198903 -0.921235800 -0.063412075 108 101 95 0.000000 3 634
2583 -0.053534639 -0.924866135 -0.042016790 18 33 19 0.000000 4 248
2584 -0.051526959 -0.924529890 -0.031652036 14 29 15 0.000000 4 249
2585 -0.051744658 -0.922892854 -0.028472511 18 33 17 0.000000 6 239
2586 -0.052975533 -0.924366730 -0.023554045 14 29 13 0.000000 4 250
2587 -0.053922898 -0.921254493 -0.012881240 16 38 17 0.000000 3 635 6 240
2588 -0.054617254 -0.916506402 -0.062602108 125 117 116 0.000000 4 251
2589 -0.053077232 -0.916240997 -0.032759154 16 31 15 0.000000 4 252
2590 -0.054534814 -0.916199829 -0.024635887 13 26 11 0.000000 4 253
2591 -0.052978874 -0.915358710 -0.016840968 17 34 16 0.000000 3 636
2592 -0.052217020 -0.911087571 -0.062720060 116 108 105 0.000000 3 637 6 241
2593 -0.050723373 -0.914854389 -0.022029483 23 36 21 0.000000 6 242
2594 -0.052663681 -0.908348991 -0.020496622 21 36 20 0.000000 3 638
2595 -0.053119012 -0.881830363 -0.061612323 129 119 115 0.000000 1 568 5 502 6 243
2596 -0.054719819 -0.875289972 -0.062220072 135 125 123 0.000000 1 569
2597 -0.054759744 -0.874011476 -0.064306825 136 127 122 0.000000 3 639
2598 -0.053740862 -0.868117286 -0.062011817 127 115 113 0.000000 5 503
2599 -0.054054550 -0.862597835 -0.062764614 132 122 118 0.000000 2 705 3 640
2600 -0.053765237 -0.856603110 -0.062621105 127 118 114 0.000000 3 641 5 504
2601 -0.054425702 -0.850361510 -0.064462534 135 125 123 0.000000 2 706
2602 -0.051701672 -0.848237915 -0.064233564 125 115 113 0.000000 3 642
2603 -0.054008359 -0.841027457 -0.064843896 137 127 127 0.000000 2 707
2604 -0.050697928 -0.839993958 -0.064028058 128 118 116 0.000000 3 643
2605 -0.053446987 -0.832025902 -0.064247277 142 132 132 0.000000 2 708
2606 -0.052107180 -0.822144405 -0.063648266 140 134 134 0.000000 2 709 4 254
2607 -0.052462187 -0.813592716 -0.064025554 141 132 135 0.000000 2 710
2608 -0.054644496 -0.808614330 -0.063428604 126 121 119 0.000000 3 644
2609 -0.052507684 -0.801147322 -0.062330141 124 120 118 0.000000 3 645 5 505
2610 -0.052590475 -0.787447916 -0.060696806 124 120 121 0.000000 5 506
2611 -0.045561223 -1.117570950 -0.060527132 134 146 148 0.000000 6 244
2612 -0.049091419 -1.109397557 -0.064615257 140 140 136 0.000000 3 646
2613 -0.045586221 -1.100520054 -0.062333184 132 141 141 0.000000 4 255 6 245
2614 -0.047937051 -1.095017787 -0.065353169 141 138 135 0.000000 3 647
2615 -0.048181010 -1.087485424 -0.062127145 140 138 139 0.000000 2 711 5 507
2616 -0.048045705 -1.080536840 -0.060544940 131 134 135 0.000000 5 508
2617 -0.047759227 -1.077964620 -0.063579111 141 133 129 0.000000 1 570 2 712 3 648
2618 -0.048976840 -1.072927344 -0.061925347 138 136 133 0.000000 2 713 5 509 6 246
2619 -0.047396705 -1.068665242 -0.061189764 132 131 128 0.000000 1 571 7 738
2620 -0.046931652 -1.062813334 -0.062346833 138 130 123 0.000000 1 572 2 714 3 649 7 739
2621 -0.045750064 -1.057221150 -0.060108046 143 134 127 0.000000 7 740
2622 -0.046847773 -1.053567468 -0.061852007 132 122 115 0.000000 1 573 2 715 5 510 7 741
2623 -0.046560801 -1.046624260 -0.062151320 132 119 110 0.000000 2 716 5 511
2624 -0.045089321 -1.045138295 -0.059942793 150 135 125 0.000000 7 742
2625 -0.046862913 -1.038658521 -0.061991749 130 116 107 0.000000 2 717 5 512
2626 -0.045001264 -1.038971737 -0.059370394 149 134 124 0.000000 7 743
2627 -0.045979783 -1.028947168 -0.063545928 123 107 100 0.000000 2 718
2628 -0.045439709 -1.020287135 -0.062971945 125 111 103 0.000000 2 719
2629 -0.045198321 -1.011189201 -0.063329796 129 118 111 0.000000 1 574 2 720
2630 -0.049754188 -1.006871749 -0.060619979 151 140 133 0.000000 7 744
2631 -0.045449059 -1.002180945 -0.061694619 134 123 118 0.000000 1 575 5 513
2632 -0.049706170 -1.000394473 -0.059985488 153 142 135 0.000000 7 745
2633 -0.046231185 -0.995422143 -0.062040957 134 123 118 0.000000 1 576
2634 -0.047934194 -0.992964832 -0.060954337 144 132 128 0.000000 5 514 7 746
2635 -0.048813619 -0.988394047 -0.065650947 151 142 137 0.000000 3 650
2636 -0.047654412 -0.987388215 -0.060688034 144 134 128 0.000000 1 577 7 747
2637 -0.047639730 -0.983696068 -0.061217354 135 123 121 0.000000 5 515
2638 -0.048705249 -0.980318878 -0.059790462 151 142 135 0.000000 7 748
2639 -0.047618609 -0.976385539 -0.065153574 153 144 139 0.000000 3 651
2640 -0.047471536 -0.979537925 -0.062730732 139 127 125 0.000000 1 578
2641 -0.048632607 -0.972798066 -0.062459332 133 124 120 0.000000 1 579 5 516
2642 -0.048236141 -0.973400888 -0.059981454 149 140 133 0.000000 7 749
2643 -0.047772909 -0.966387835 -0.060149455 146 137 130 0.000000 7 750
2644 -0.047350120 -0.963496255 -0.062565306 144 136 130 0.000000 1 580 3 652
2645 -0.048873378 -0.955482790 -0.061084346 133 124 119 0.000000 1 581
2646 -0.047748391 -0.959530303 -0.059422997 143 134 127 0.000000 7 751
2647 -0.049884186 -0.950672239 -0.061683770 133 123 121 0.000000 6 247
2648 -0.047295440 -0.952350888 -0.059550763 140 131 124 0.000000 7 752
2649 -0.049789241 -0.946641885 -0.062741635 131 122 117 0.000000 1 582
2650 -0.049805635 -0.941467348 -0.061625741 117 110 104 0.000000 2 721
2651 -0.049673290 -0.943150548 -0.024165672 19 34 20 0.000000 5 517
2652 -0.045628975 -0.935919787 -0.062042942 117 107 105 0.000000 5 518
2653 -0.049200987 -0.937733985 -0.018640597 20 37 20 0.000000 1 583 5 519
2654 -0.049392726 -0.932598286 -0.062038271 115 108 102 0.000000 2 722
2655 -0.049102598 -0.930134609 -0.016457168 19 35 14 0.000000 5 520
2656 -0.049213963 -0.931446749 -0.011309282 22 40 24 0.000000 1 584 2 723
2657 -0.046765389 -0.925722224 -0.061735572 117 107 105 0.000000 5 521
2658 -0.049055987 -0.923481665 -0.062133813 133 123 121 0.000000 6 248
2659 -0.048759023 -0.923775344 -0.011179336 25 38 21 0.000000 2 724 5 522
2660 -0.047892569 -0.915314048 -0.061303469 114 104 102 0.000000 5 523
2661 -0.047621000 -0.906436905 -0.059303940 106 99 93 0.000000 2 725
2662 -0.049420159 -0.902494334 -0.065300944 117 109 106 0.000000 3 653
2663 -0.049010515 -0.904695258 -0.060746634 112 102 100 0.000000 5 524
2664 -0.047578701 -0.895922033 -0.062371306 124 115 110 0.000000 2 726 6 249
2665 -0.049254534 -0.895814236 -0.057779772 114 104 102 0.000000 5 525
2666 -0.048465629 -0.893161447 -0.065662425 132 123 118 0.000000 3 654
2667 -0.047282539 -0.887521144 -0.064052414 117 108 101 0.000000 2 727
2668 -0.046429703 -0.883814621 -0.063256721 138 128 124 0.000000 1 585 3 655
2669 -0.046496883 -0.876780458 -0.063190943 130 119 116 0.000000 1 586 2 728
2670 -0.046282276 -0.874343227 -0.064212023 138 129 124 0.000000 3 656
2671 -0.045688601 -0.867486417 -0.063094583 130 120 116 0.000000 2 729 3 657
2672 -0.046362722 -0.862736483 -0.063227591 136 124 122 0.000000 1 587 2 730
2673 -0.046530402 -0.855842709 -0.062492264 130 121 118 0.000000 1 588 5 526
2674 -0.045180949 -0.851574232 -0.062670236 135 123 123 0.000000 2 731
2675 -0.049369168 -0.852016644 -0.058982111 162 132 89 0.000000 6 250 7 753
2676 -0.048346379 -0.845031824 -0.063765596 127 119 118 0.000000 1 589
2677 -0.046339957 -0.844837335 -0.060249756 125 116 111 0.000000 5 527
2678 -0.048513920 -0.836554792 -0.061341914 127 119 116 0.000000 1 590
2679 -0.049677636 -0.831209590 -0.062604781 134 127 128 0.000000 3 658 4 256
2680 -0.047016373 -0.833604976 -0.058188900 129 119 117 0.000000 5 528
2681 -0.049371314 -0.825711355 -0.062423701 129 121 120 0.000000 1 591
2682 -0.048881363 -0.824232366 -0.064364469 130 122 119 0.000000 3 659
2683 -0.049123749 -0.816070806 -0.062038862 129 122 120 0.000000 1 592 3 660 5 529
2684 -0.046926570 -0.808916357 -0.063342297 126 121 119 0.000000 3 661
2685 -0.046125458 -0.801659145 -0.063748399 124 121 118 0.000000 3 662
2686 -0.040682765 -1.125041993 -0.060604019 126 142 150 0.000000 6 251
2687 -0.040231925 -1.108229064 -0.061315780 132 143 143 0.000000 6 252
2688 -0.044421319 -1.090714358 -0.062481619 137 137 137 0.000000 4 257
2689 -0.040384010 -1.087687259 -0.061376367 138 142 141 0.000000 2 732 5 530
2690 -0.041555910 -1.081062559 -0.061480160 140 139 138 0.000000 2 733 5 531 6 253
2691 -0.041196018 -1.077361858 -0.061367094 145 124 83 0.000000 1 593 4 258
2692 -0.042258383 -1.074271916 -0.060653696 131 130 130 0.000000 5 532
2693 -0.042079818 -1.068036566 -0.061103701 130 126 121 0.000000 1 594 5 533
2694 -0.042049976 -1.062324304 -0.061520506 130 124 116 0.000000 1 595 6 254
2695 -0.043882512 -1.061274669 -0.059817384 127 125 115 0.000000 5 534
2696 -0.042100479 -1.054427266 -0.062171183 119 106 93 0.000000 1 596
2697 -0.042988251 -1.047989992 -0.060756046 146 83 60 0.000000 1 597 3 663
2698 -0.042978715 -1.037446571 -0.063824469 134 118 111 0.000000 3 664
2699 -0.043821333 -1.032980551 -0.063363079 122 98 86 0.000000 1 598
2700 -0.044446203 -1.032770248 -0.059708564 147 129 120 0.000000 7 754
2701 -0.042113831 -1.025740504 -0.065421784 135 121 113 0.000000 3 665
2702 -0.043789742 -1.026070373 -0.061630783 128 115 107 0.000000 1 599 7 755
2703 -0.043353706 -1.020082077 -0.060315929 147 131 124 0.000000 7 756
2704 -0.044668209 -1.018255483 -0.062291765 126 115 108 0.000000 1 600
2705 -0.041144214 -1.013587364 -0.066125367 142 131 124 0.000000 3 666
2706 -0.040694419 -1.014269959 -0.061611596 140 126 120 0.000000 4 259
2707 -0.043281806 -1.013654094 -0.059680303 152 136 129 0.000000 7 757
2708 -0.041359119 -1.005376821 -0.062250110 141 129 127 0.000000 4 260
2709 -0.043209123 -1.008482215 -0.059737679 142 132 124 0.000000 5 535 7 758
2710 -0.040072791 -1.001052257 -0.065901266 144 135 130 0.000000 3 667
2711 -0.043351067 -1.001747671 -0.061495777 137 127 120 0.000000 2 734 7 759
2712 -0.043704696 -0.996959895 -0.064010545 141 129 127 0.000000 4 261
2713 -0.042879343 -0.994061807 -0.061813334 136 126 120 0.000000 2 735 7 760
2714 -0.042233329 -0.987196391 -0.061424838 142 130 125 0.000000 2 736 4 262 6 255 7 761
2715 -0.041133603 -0.980091086 -0.059834060 150 141 134 0.000000 7 762
2716 -0.043088495 -0.977023024 -0.063106565 123 114 109 0.000000 2 737
2717 -0.040525584 -0.973024284 -0.062147558 134 124 120 0.000000 1 601 5 536
2718 -0.040628480 -0.973081552 -0.059976800 150 141 134 0.000000 7 763
2719 -0.041650759 -0.966501059 -0.061946942 134 124 119 0.000000 2 738 5 537 7 764
2720 -0.041575032 -0.963838305 -0.061407431 139 130 125 0.000000 1 602 6 256
2721 -0.042057597 -0.956954747 -0.062061313 126 116 112 0.000000 1 603 2 739 5 538
2722 -0.041566403 -0.950762210 -0.062366726 120 113 105 0.000000 2 740
2723 -0.042933963 -0.946504584 -0.061937379 126 117 114 0.000000 1 604 5 539
2724 -0.042748375 -0.942410314 -0.063685316 138 129 123 0.000000 2 741 3 668
2725 -0.042773362 -0.937551209 -0.062500510 136 126 122 0.000000 1 605 6 257
2726 -0.041888758 -0.932225316 -0.062940656 140 131 126 0.000000 2 742 3 669
2727 -0.042654912 -0.929639636 -0.061818126 136 127 122 0.000000 1 606
2728 -0.042594609 -0.922926028 -0.065993536 150 141 136 0.000000 3 670
2729 -0.041644438 -0.922629855 -0.062029567 128 119 115 0.000000 1 607 2 743
2730 -0.041720520 -0.913198671 -0.066559834 147 138 133 0.000000 3 671
2731 -0.043639823 -0.912344235 -0.061055222 131 122 117 0.000000 1 608
2732 -0.041476028 -0.909709211 -0.062544747 140 129 122 0.000000 6 258
2733 -0.040726954 -0.903242219 -0.066118948 151 142 137 0.000000 3 672
2734 -0.042167661 -0.904154686 -0.060966439 128 118 113 0.000000 1 609 5 540
2735 -0.043210474 -0.893547387 -0.061710250 130 119 114 0.000000 1 610 5 541
2736 -0.042952212 -0.880875258 -0.062079470 126 115 110 0.000000 5 542
2737 -0.043917319 -0.869562259 -0.061118694 127 116 111 0.000000 5 543
2738 -0.043578695 -0.867037745 -0.059814124 147 128 111 0.000000 6 259
2739 -0.044284862 -0.856686325 -0.063282413 130 121 116 0.000000 3 673
2740 -0.043372292 -0.848286620 -0.063157228 126 117 112 0.000000 3 674
2741 -0.041529437 -0.849784354 -0.059910462 150 142 139 0.000000 7 765
2742 -0.043677330 -0.841300416 -0.063496460 132 122 120 0.000000 2 744 3 675
2743 -0.043065714 -0.832407155 -0.064027486 134 124 126 0.000000 2 745 3 676
2744 -0.040450791 -0.825619415 -0.062128626 128 123 121 0.000000 1 611
2745 -0.044085492 -0.822768194 -0.065762821 141 132 135 0.000000 2 746
2746 -0.040967426 -0.824542064 -0.064275970 129 121 120 0.000000 3 677
2747 -0.041065459 -0.815201989 -0.062284487 127 122 120 0.000000 1 612
2748 -0.043407605 -0.814146429 -0.064191007 139 133 135 0.000000 2 747
2749 -0.041302762 -0.801141754 -0.062515473 129 121 120 0.000000 5 544
2750 -0.042311836 -0.787516589 -0.061341820 122 118 119 0.000000 5 545
2751 -0.039993154 -1.139386133 -0.062604036 144 143 145 0.000000 3 678
2752 -0.039249907 -1.126865551 -0.065752337 146 142 143 0.000000 3 679
2753 -0.038133041 -1.111380940 -0.065937971 143 143 139 0.000000 3 680
2754 -0.036935944 -1.095448296 -0.065230147 144 139 135 0.000000 3 681
2755 -0.039360732 -1.090586719 -0.061699180 137 140 141 0.000000 6 260
2756 -0.038296822 -1.072060137 -0.061958386 143 137 133 0.000000 2 748 5 546 6 261 7 766
2757 -0.036649856 -1.067653208 -0.061706521 134 127 121 0.000000 5 547
2758 -0.038459923 -1.062744290 -0.061126632 138 128 122 0.000000 2 749 5 548 7 767
2759 -0.038856016 -1.058003577 -0.059646684 138 123 113 0.000000 7 768
2760 -0.036745459 -1.057560365 -0.050876520 186 134 26 0.000000 6 262
2761 -0.038119263 -1.053648662 -0.060997295 140 90 64 0.000000 2 750 5 549 7 769
2762 -0.037647426 -1.045845299 -0.060329981 110 67 28 0.000000 7 770
2763 -0.038035351 -1.047504190 -0.047886999 170 110 18 0.000000 6 263 7 771
2764 -0.037235490 -1.043112029 -0.030764493 161 39 13 0.000000 5 550
2765 -0.037191245 -1.040326438 -0.028844547 165 39 10 0.000000 1 613
2766 -0.038529010 -1.039509186 -0.057891598 123 71 8 0.000000 7 772
2767 -0.037105980 -1.039654811 -0.047336768 168 102 10 0.000000 7 773
2768 -0.036552311 -1.039730626 -0.036094104 140 21 3 0.000000 7 774
2769 -0.036992623 -1.037572884 -0.027484013 160 36 6 0.000000 5 551
2770 -0.037934997 -1.033263685 -0.058193011 113 71 39 0.000000 7 775
2771 -0.036458326 -1.033602959 -0.047658904 166 100 10 0.000000 7 776
2772 -0.036771739 -1.027716431 -0.058504917 114 87 68 0.000000 2 751 7 777
2773 -0.035122462 -1.026050291 -0.052790095 108 77 48 0.000000 1 614
2774 -0.036220692 -1.020552031 -0.061321693 123 106 95 0.000000 2 752 7 778
2775 -0.036884328 -1.018250491 -0.061015173 117 101 94 0.000000 1 615
2776 -0.036368914 -1.012187894 -0.062099832 131 118 110 0.000000 1 616 2 753 7 779
2777 -0.035668952 -1.008584262 -0.060033348 141 126 120 0.000000 5 552 7 780
2778 -0.036830353 -1.003273108 -0.061939430 127 117 111 0.000000 1 617 2 754
2779 -0.036085089 -1.001216771 -0.059579116 144 130 124 0.000000 5 553 7 781
2780 -0.038462488 -0.995342074 -0.061783982 132 121 116 0.000000 1 618
2781 -0.036773020 -0.994010861 -0.061397601 128 118 113 0.000000 2 755 5 554
2782 -0.038920341 -0.987871183 -0.063180212 143 133 128 0.000000 1 619 3 682
2783 -0.039511844 -0.984208299 -0.060834769 133 121 119 0.000000 5 555
2784 -0.038074688 -0.977318895 -0.065882764 154 145 140 0.000000 3 683
2785 -0.038139365 -0.978084205 -0.061656864 139 128 125 0.000000 1 620 6 264
2786 -0.037146056 -0.966077236 -0.066110999 159 148 143 0.000000 3 684
2787 -0.039635861 -0.958777294 -0.060193305 149 140 133 0.000000 7 782
2788 -0.036119522 -0.954540417 -0.065366278 161 152 145 0.000000 3 685
2789 -0.039148364 -0.951482569 -0.060267070 147 138 131 0.000000 7 783
2790 -0.037127898 -0.948051999 -0.062924558 134 123 120 0.000000 5 556 6 265
2791 -0.036918355 -0.936541249 -0.061759581 130 118 116 0.000000 5 557
2792 -0.038998046 -0.933623738 -0.062199370 135 126 121 0.000000 4 263
2793 -0.038199856 -0.925779452 -0.062273083 128 119 114 0.000000 5 558
2794 -0.036127771 -0.922530733 -0.062079994 137 128 124 0.000000 1 621 4 264
2795 -0.038752162 -0.915871035 -0.061600173 127 117 113 0.000000 2 756 4 265 5 559
2796 -0.035619509 -0.911498753 -0.062652711 135 126 121 0.000000 1 622
2797 -0.039148249 -0.906424742 -0.062430204 119 110 105 0.000000 2 757
2798 -0.036066674 -0.902662169 -0.062215778 134 123 118 0.000000 1 623
2799 -0.038700219 -0.897386416 -0.062831863 122 113 108 0.000000 2 758
2800 -0.038138620 -0.893213075 -0.063655762 142 132 126 0.000000 1 624 3 686
2801 -0.038350316 -0.888067374 -0.064215631 121 112 105 0.000000 2 759
2802 -0.038446469 -0.882852838 -0.062828378 140 129 123 0.000000 1 625 3 687 6 266
2803 -0.037729823 -0.877010120 -0.063130913 130 120 114 0.000000 1 626 2 760
2804 -0.037460098 -0.872298396 -0.063100978 134 123 118 0.000000 2 761 3 688
2805 -0.036973656 -0.865902504 -0.064185536 135 126 119 0.000000 3 689
2806 -0.037571392 -0.862869362 -0.063126936 136 124 122 0.000000 1 627 2 762
2807 -0.035882236 -0.857199199 -0.062269434 130 120 116 0.000000 3 690 5 560
2808 -0.037570459 -0.853551761 -0.063022042 135 124 123 0.000000 1 628 2 763
2809 -0.035213342 -0.848605906 -0.063065989 128 119 114 0.000000 3 691
2810 -0.037517194 -0.843738309 -0.062990579 132 122 120 0.000000 1 629 2 764 5 561
2811 -0.039838916 -0.835895556 -0.061932370 127 119 116 0.000000 1 630
2812 -0.036615066 -0.832645426 -0.062388107 134 124 125 0.000000 2 765 5 562
2813 -0.039942107 -0.816608684 -0.062781157 129 121 120 0.000000 3 692
2814 -0.038880142 -0.819167194 -0.059399470 132 122 120 0.000000 5 563
2815 -0.039349694 -0.809381415 -0.064297400 126 121 119 0.000000 3 693
2816 -0.038481037 -0.801958296 -0.063662914 125 122 119 0.000000 3 694
2817 -0.030742008 -1.123360796 -0.061438971 132 142 147 0.000000 6 267
