# 3D point list with one line of data per point:
#   POINT3D_ID, X, Y, Z, R, G, B, ERROR, TRACK[] as (IMAGE_ID, POINT2D_IDX)
# Number of points: 398, mean track length: 3.5535991714137753
1168 -1.9585800757837082 -4.1929347369090593 11.349348163616774 133 174 0 0.60394899469464913 4 12928 3 10889 5 13262
1169 -2.0659556300228799 -4.1076187499845185 11.408390641301933 228 239 209 1.2506397706470906 4 12971 3 10944 5 13294 2 13165
1170 -3.6222916827030849 -4.0416751043489594 10.862893527796457 127 165 0 0.67988913852863186 4 12982 3 10960 5 13337
1171 -2.1558773304775629 -4.0523801967616615 11.407589939685497 235 245 143 1.8622229444858553 4 12989 3 10966 5 13316 2 13193
1172 -1.7948074274747123 -4.0401166386175333 11.46845338484923 184 218 36 1.0824943352132341 4 13005 3 10968 5 13317 6 14214
1173 -1.7948074274747123 -4.0401166386175333 11.46845338484923 184 218 36 1.0824943352132341 4 13004 3 10969 5 13318 6 14215
1174 5.4801280177084042 -4.0557508278715408 11.245169602003971 1 49 89 1.0318628338547198 4 12990 3 10970
1175 5.5964073321669208 -4.0756642613018021 11.59841063111695 1 49 89 0.65679431112021047 4 12991 2 10607
1176 -3.5543459686604799 -3.9866402386298674 10.837098678122535 134 172 1 1.0427155127997432 4 13010 3 10975 2 13191
1177 -1.5843883240223087 -4.0333950613442706 11.606196061712483 179 206 63 1.3346990730787851 4 13011 3 10976 5 14320
1178 -3.6534063153015799 -3.9599303371142387 10.859150162899297 247 255 227 0.46880509049832986 4 10475 3 10987 5 13378
1179 -3.5007428141331722 -3.9195709839014068 10.842431460541487 128 165 0 0.70775297242982449 4 13056 3 11008 5 13397
1180 -2.8947674418013207 -3.9004724575668632 10.987306178445422 165 192 0 0.69977177094428533 4 10541 3 11026 5 13399
1181 -3.7856835870679895 -3.8819413688090361 10.847428932959877 104 145 11 0.85493210760286631 4 10547 3 11027 5 10943
1182 -2.908672572689122 -3.8698073108339823 10.955005114606664 232 251 194 0.35568891944026609 4 13082 3 11040 5 13415
1183 -6.1112036893664632 -3.8492336044936177 11.310915687110821 125 172 8 0.67805996151373493 4 13100 3 11047 5 11038
1184 -6.1112036893664632 -3.8492336044936177 11.310915687110821 125 172 8 0.67805996151373493 4 13101 3 11048 5 11037
1185 -3.5006359758070014 -3.8429235291792896 10.834183398336581 135 177 0 0.71061325610588233 4 13093 3 11049 5 13437
1186 -3.306347699207135 -3.8292479571941929 10.845460548329514 140 179 2 1.2318780039103803 4 13098 3 11056 2 13282
1187 -3.0726667520200484 -3.8392242064175068 10.932889139498426 121 153 0 0.75071346649341342 4 13095 3 11060 5 13433
1188 -4.6043424104875283 -3.7790452299186734 11.164456762944628 140 177 2 0.60265719361337822 4 13139 3 11085 5 13483
1189 -3.1492851816287093 -3.7827848253846907 11.363151252145029 241 249 221 0.60091937937570683 3 11097 5 13459
1190 -1.6344338401836429 -3.7622758943220243 11.563150559923367 101 148 11 1.225589243439378 4 14095 3 11118 2 10839
1191 -3.2451904643070484 -3.7267868563364956 10.865044576820919 142 177 2 0.62355783611275106 4 13160 3 11127 5 13477
1192 -1.7181415854373008 -3.6933741702323246 11.324514140777216 128 175 21 1.0444301302699743 4 14107 3 11143 5 14376
1194 -2.987646470629568 -3.6666049439204711 10.849117220826056 245 252 245 0.5002484608170874 4 13196 3 11157 5 13514
1195 -3.6381036835598173 -3.6449555069983912 10.78541524221712 242 254 218 1.1928575593356898 4 13208 3 11170 5 13542
1196 -3.6381036835598173 -3.6449555069983912 10.78541524221712 242 254 218 1.1928575593356898 4 13207 3 11171 5 13541
1197 -2.4278302114554511 -3.6203432767897858 11.050335676988102 136 175 13 1.3301167067183812 4 13220 3 11187 5 13528 6 14334
1198 -4.3944059948782881 -3.6220654903959879 11.212353238984917 121 162 0 1.744976639766799 4 13224 3 11188 5 13567
1199 -3.4226401700477616 -3.608909071837564 10.816921565085741 149 183 13 0.77462851203199834 4 13225 3 11195 5 13558
1200 -4.4148281208090854 -3.5842107560803491 11.203068657664822 228 252 200 1.1032442374444889 4 13243 3 11204 5 11193
1201 -2.6782665129887824 -3.5833153227816457 10.914064903782334 218 234 208 0.42510067942313623 4 13236 3 11206 5 13554
1202 -1.6014759386601678 -3.5845347660978337 11.371952940046198 113 153 2 1.5735745212225904 4 13252 3 11209 5 13534
1203 -1.8342730463682826 -3.5795953121284887 11.311312284158854 128 175 6 0.6067354714454084 4 13250 3 11213
1204 -2.2316900903404928 -3.5745043024003831 11.073672745976152 146 189 5 0.56693983957922478 4 13247 3 11218 5 13550
1205 -2.2316900903404928 -3.5745043024003831 11.073672745976152 146 189 5 0.56693983957922478 4 13248 3 11219 5 13551
1206 -5.2862618323129613 -3.5548109091941136 10.825513401952326 83 117 0 1.7302016091459207 4 13263 3 11222 5 11226
1207 -2.3470216181365267 -3.5580465168757511 11.01644497657823 135 171 1 1.1172172180497075 4 13258 3 11231 5 13561
1208 -1.943887065805008 -3.5406936788802188 11.218323139321623 126 173 3 1.0079868470665736 4 13275 3 11238 5 13562
1209 -2.7593307725797382 -3.4526869898065904 10.870982277048004 48 61 35 0.43390427479507271 4 13311 3 11279 5 13613
1210 -3.2569975148408838 -3.4167658026709331 10.764031617917913 129 168 0 0.8449490564975114 4 13340 3 11301 5 13636
1211 -3.2569975148408838 -3.4167658026709331 10.764031617917913 129 168 0 0.8449490564975114 4 13339 3 11302 5 13635
1212 -1.7620568306090556 -3.4092574659323702 11.400065096488436 122 167 62 1.2582010956833145 4 14143 3 11304 2 13493
1213 -4.715189361258564 -3.3523744164359863 11.067794716436788 239 227 78 1.346364346065088 4 13355 3 11315 5 13672
1214 -1.8482333346216244 -3.3214500610592115 11.753096281786007 125 170 78 1.5164302754901096 4 13361 2 13524
1215 -3.9169006195702956 -3.2831897445611222 10.839866556437752 244 228 158 1.4792862809653384 4 13371 3 11344 5 11379 2 13520 7 14678 8 6536 9 7458 10 8107
1216 -3.9109815169255264 -3.2825150917137256 10.809066526230332 244 228 158 0.77055205732258436 4 13372 3 11345 2 13519
1217 -4.5570691037120694 -3.2600890987637614 11.106778494232321 229 227 30 0.44444251066191193 4 13379 3 11348 5 13705
1218 -4.5946532535151414 -3.2591743571229799 11.050010806307215 240 228 58 1.174948395345357 4 13383 3 11354 5 13706 2 13532 6 14529
1219 -3.8614640981476658 -3.2634788971288877 10.914824756757319 133 182 47 0.75091235309451232 4 13376 3 11355 5 13694
1220 -1.9464063792559707 -3.1780558691813514 11.434152958822525 25 46 29 1.9555279268126728 4 13406 3 11375 5 13692 2 13565
1221 -1.9225500139610163 -3.1802463593053467 11.344775157369792 25 46 29 1.0041088303915691 4 13407 3 11376 5 13691
1222 -2.410404667169912 -3.1772320769897027 11.499467774411501 56 103 59 0.55833354188301598 4 13411 3 11378 5 13698
1223 -3.5353690484675102 -3.1696529616370173 10.843007557244087 158 192 17 1.1559726428682013 4 13412 3 11383 2 13558
1224 4.899911125266839 -3.1372102538898448 11.822306087602746 188 42 17 2.7494101551784627 4 11063 3 11391 2 14211
1225 -3.4067653839945482 -3.144672875008875 10.948988547856658 184 201 37 1.0201956370237675 4 13416 3 11392 2 13571
1226 -1.4304792093403769 -3.1299692749659913 11.771645741385987 43 73 40 1.5833348539424861 4 13418 3 11394 5 13699 2 13582 1 11383
1227 -3.7433348963793152 -3.1302746404179684 10.927827680782629 139 178 37 0.60428165289927971 4 13423 3 11396 5 13726
1228 4.8732971135555605 -3.1082184739588889 11.941996371584453 190 42 16 2.6432701371833387 4 13424 3 11397 2 14216
1229 -3.5834010261798346 -3.0911063837722921 10.937527176424821 147 182 28 1.2927516634217096 4 13431 3 11404 5 11494 2 13581
1230 -1.7528196333632422 -3.0386136117377793 11.628815009513698 48 82 57 0.87767382175025965 4 11133 3 11411 5 13722 6 14574
1231 -2.0748408162315548 -3.0013578320868834 11.483390969250982 82 123 81 0.93898629112129284 4 13448 3 11426 5 13734
1232 -4.8041824290221324 -2.9881903625052102 11.421662578316569 244 230 86 0.53558934527187452 4 13454 3 11429 5 13758
1233 -1.6852285750848648 -2.9842033571039712 11.646460154779353 168 213 174 0.84790949605690347 4 13452 3 11430 5 11500
1234 -3.8050116997937651 -2.9890375110070631 11.264519789364545 103 168 68 2.4039317532382651 4 11154 3 11432 5 11533 2 13599
1235 -3.825741618794277 -2.950802404232248 11.311142657919321 11 59 0 1.1960960823534763 4 13457 3 11440 5 13759 2 13612
1236 -1.8864565615716682 -2.9445372124432847 11.493565136108488 94 132 93 0.68121263852205338 4 13458 3 11441 5 13749
1237 -3.779369602982519 -2.9408328517709919 11.325675004941477 3 61 0 1.0520694104971782 4 11173 3 11442 5 11542
1238 -4.6512156657068537 -2.9316147128002878 11.43344029026801 203 213 52 1.6305508630199532 4 13460 3 11446 5 13764 2 13618
1239 -4.7355830342222101 -2.923746268887907 11.48044321521072 210 219 51 0.93917589981998972 4 13463 3 11449 5 11553
1240 -4.0805943376567075 -2.8983030729907151 11.095129275727121 163 235 170 0.73252242270152301 4 11188 3 11455 2 11331
1241 -4.0285142448696973 -2.9018685032854554 11.143171545668398 169 234 165 1.8441559321151952 4 13468 3 11456 5 13766 2 13623
1242 -1.7615746111189883 -2.8468823775356533 11.430209682975486 65 116 75 0.93623176608334002 4 11193 3 11458 5 13762
1243 8.5249825805968591 -2.3049094334074978 12.16766660154582 216 205 187 1.2653442336681662 4 13479 3 11467 5 13768
1244 8.5249825805968591 -2.3049094334074978 12.16766660154582 216 205 187 1.2653442336681662 4 13478 3 11468 5 13767
1245 4.9760180269930654 -1.8115002497521437 11.931065595022844 125 119 107 2.4226304859841328 4 13485 3 11474 2 13647 1 13488
1246 1.7298161850962506 -1.7013352965804422 11.669233231302689 239 233 199 1.2608579621963862 4 13491 3 11476 5 13791 2 14234
1247 -0.14738263613461369 -1.6140309938005228 11.657487752262 229 220 180 0.47892162181416759 4 13500 3 11482 5 13799
1248 -0.49835761817251306 -1.5974795521629193 11.630642553172409 226 215 177 0.5238789583019251 4 13502 3 11485 5 13803
1249 5.2916149531368131 -1.5669928204599601 11.602379936211594 113 107 95 0.71483030977403639 4 11303 3 11486 5 13790
1250 2.0428835718591518 -1.3906956642324648 11.554348721869667 181 172 133 0.78722738415422877 4 13511 3 11491 2 13671 8 8835 7 16390
1251 2.1961915008123327 -1.3884276860871307 11.546231750194531 195 186 154 1.6741230699859961 4 13512 3 11492 5 13804 2 13673 8 8836 1 13510
1252 2.1961915008123327 -1.3884276860871307 11.546231750194531 195 186 154 1.6741230699859961 4 13513 3 11493 5 13805 2 13672 8 8837 1 13511
1253 -0.17974628780146634 -1.2757774833925484 11.548221736193764 231 225 179 1.1630807758205535 4 13517 7 16386 3 11498 5 13821 8 8831
1254 8.5225366175544526 -0.91826381117818701 11.736126567456067 118 111 101 1.1502297775957804 6 14668 3 11504
1255 2.3265264557930219 -0.68655633246957315 11.430606588375271 156 149 113 1.9384996829146486 4 13541 3 11511 2 13692 1 13528
1256 2.3265264557930219 -0.68655633246957315 11.430606588375271 156 149 113 1.9384996829146486 4 13542 3 11512 2 13693 1 13529
1257 1.1128276530605254 -0.030310425822775877 11.392659524630657 236 228 191 1.6133782094452676 6 14719 3 11529 5 13856 2 13711
1258 0.6402460850813172 0.00099276526071689908 11.414059724523543 232 224 185 1.0947733894687968 4 13565 3 11531 5 13859 2 13714
1260 1.1843870414708637 0.20155545077928139 11.378079200619158 226 222 185 0.82022373258255743 4 13572 3 11543 2 13722 1 13552
1261 -1.374389796529222 0.33238936529813512 11.33587682937635 244 236 204 1.4108007455511633 4 13583 3 11551 2 13727 8 8900 9 10083 1 13555
1262 1.9862515635553362 0.41444389543368865 11.467941590517883 76 70 54 0.91665164722610559 4 14259 3 11555 2 11651
1263 -1.5098420499873983 0.34102359755331713 11.329749375521398 189 184 153 1.3864455840794847 6 14763 3 11556 5 11882 4 11503 8 7509 1 11777 9 3865
1264 -1.5574333263452373 0.33979182717420087 11.305315024532591 153 149 115 1.4691863058824841 6 14765 3 11558 5 13888 2 11650
1265 -1.8441580514585687 0.34889475346434851 11.286494710928684 161 156 124 0.87560525332317118 4 13590 3 11560 2 13731
1266 -1.8454445068131333 0.35313371494334 11.299695707466585 161 156 124 0.95702345487185225 4 13589 3 11561 5 13890 2 13732
1268 -2.6671270029993606 0.40483166790613878 11.315108656452082 229 227 198 1.3930635235160367 4 11509 3 11570 5 11892 8 7496 10 9129
1269 5.4884596443761593 1.1391828265017223 11.138857037454351 108 101 91 1.1932063496735335 4 14276 3 11580
1270 -5.3478733227994848 1.4238516359006461 11.21215578600831 207 204 188 1.8597169950130843 4 13622 5 13923 1 13594 3 11590
1271 -5.359149980845145 1.4316025400539656 11.234120113420742 207 204 188 1.9154166612524584 4 13621 3 11591 5 13922 1 13593 10 11009
1272 2.8021119744726302 -9.7875482928545434 14.082941385945125 88 80 69 2.1158951433962585 4 11843 3 11637 5 12199
1273 -2.2690431242830007 -6.9991260988942035 12.676798945119488 204 229 199 0.70723358590045526 4 14303 3 11661 2 14362
1274 -2.4148042884550289 -6.9597535818996157 12.692512237022022 162 197 163 0.97845585190610596 4 11905 6 14997 3 11663 5 12310
1275 -3.6693284656963603 -6.7347738834072395 12.448237869706247 54 86 55 1.7736582850821714 6 13381 3 11675 2 13875 1 12463
1276 -2.5371114542414137 -6.7579588385913576 12.742252281140894 136 167 126 0.96011609690424538 4 13718 3 11677 5 14034
1277 -4.6077189892409196 -6.5834760499337266 12.635295960592911 152 232 151 0.20706384697127481 4 13737 3 11691 5 14059
1278 -5.4573872379025623 -6.298693651761929 12.313844135875424 244 240 90 1.0099098902149957 4 13756 2 13910
1279 -5.4377841800927245 -6.1632461418195934 11.988162840981893 190 212 78 0.89936673676499446 4 12038 3 11709 5 12492
1280 -6.236181837514736 -6.0272690877520816 12.173323223116711 218 226 62 0.51878428843333713 4 13791 3 11729 2 13925 1 12608
1281 -5.2735958569050894 -5.785487419934662 11.71866291213296 231 222 55 0.64222661255861435 4 12149 3 11757 5 12629
1282 -3.160830137114182 -5.6416774515009331 11.247103983637821 171 209 34 1.1088056507890256 4 13826 3 11770 5 14145
1283 -3.1276875478677346 -5.3910063189608408 11.179488164799265 126 173 18 1.7765954492570579 4 13860 3 11794 5 14183
1284 -2.8374734042895948 -5.3012449086403883 11.335635490763908 132 170 12 2.1949095667138105 4 13874 3 11804 5 14194
1285 6.9723310574090469 -4.830013869412765 9.8486024431412922 38 93 149 1.2395316541304746 4 12463 3 11838 5 12716
1286 -3.664101538050176 -4.7513918208845949 11.913302701368007 143 194 112 0.91099899609757473 4 13949 3 11860 5 14262
1287 -5.5380586351325416 -4.2900881277943776 10.668440779264641 230 251 199 0.80688748727091697 4 12843 3 11930 5 13264
1288 -2.0923302568924025 -4.1522118618070136 11.438999906880634 132 169 4 1.077784024895813 4 14027 3 11957 2 14117 1 13977
1289 -2.2407635930703109 -4.1507613500986986 11.46566057787688 128 173 8 2.0985034893729009 4 12949 3 11959 2 13152
1290 7.359156066986694 -4.2534820930100397 12.883920171276607 221 220 215 2.4987712577290306 4 14029 1 13113
1291 -2.0915679226674486 -4.0058218793820712 11.272929468620628 132 183 0 0.35220830058429725 4 13015 3 11982 5 13334
1292 -1.9798575722379876 -3.9992528766153335 11.324122777212253 144 190 19 0.94805418834754052 4 13024 3 11983 5 10803
1293 -2.0038015790159949 -4.0029477825609057 11.434058542319766 144 190 19 0.68578452518213984 4 13025 3 11984 1 13164
1295 -2.4059712501166204 -3.9416018306583922 11.150928548597069 129 172 0 0.39733733756406542 4 14047 3 11992 5 14762
1296 -2.4059712501166204 -3.9416018306583922 11.150928548597069 129 172 0 0.39733733756406542 4 14048 3 11993 5 14763
1297 -1.5737637097177 -3.9445356815869159 11.799396362521271 191 215 64 0.91018733705967225 4 14502 3 12001 2 14148 1 13194
1298 -1.7770878423371286 -3.8683382659413619 11.336503558105637 135 185 32 1.1835675097326293 4 14058 3 12004 5 14772
1299 -3.9984058019876012 -3.8335406980603191 10.963779472979104 104 156 22 1.171553136683573 4 13096 3 12009 5 10989
1300 -2.065815612864383 -3.7692815985799699 11.149797576274088 154 195 27 1.0310251312139913 4 14085 3 12024 5 14360
1301 -4.4609850097838359 -3.5338939718478235 11.233902074711331 162 197 7 0.10768217915458418 4 14127 3 12055 5 14413
1302 7.8005264867023998 -3.534252018367094 12.305769340310301 191 178 161 0.43741491882316225 4 14130 3 12058 5 14343
1303 -1.9446401225705137 -3.4479787102757555 11.221166253786254 114 158 3 1.4112660094489646 4 13325 3 12063 5 13605 5 14409
1304 -4.6327866210677104 -3.4361255743508465 11.001935215409677 240 230 81 1.6393761038532422 4 13332 3 12064
1305 -3.5769239209534804 -3.3076996270255794 10.879640502049021 129 173 17 0.74551457131710663 4 14147 3 12076 5 14422
1306 -2.5284874658056431 -3.0607084147896355 11.386865080254639 67 125 77 1.757232904943735 4 14163 3 12090 5 14437 2 13589 1 11408
1307 2.1898199597966448 -1.7295745026678724 11.591225711451298 229 221 182 1.1845875613696344 4 14178 3 12104 5 14462 2 14232
1309 -0.89454017186989399 -1.5402979657504852 11.611698667716997 184 183 153 0.88559766679223328 4 14181 3 12110 5 14468
1310 -0.75223200836538506 -1.5072138143037326 11.648664205460653 215 211 192 0.081873556394160399 4 14182 3 12111
1311 -2.6035055494221964 -1.395703152003807 11.489977871415041 240 233 192 0.11900931940718136 4 14190 3 12125 5 14482
1312 0.1769820870158926 -1.2261837039625991 11.618833679749899 145 130 99 0.43330485827974191 4 14198 3 12134 1 14093
1313 -0.36564327285371179 -1.0003742128628934 11.576787675486939 225 213 171 0.38624108201452501 4 14205 3 12144 5 14503
1314 -2.7065157682209064 -0.77116994102897574 11.442887682884111 207 203 176 1.2051692228556068 4 14209 3 12150 5 14511 2 14273 1 14106
1315 -2.7065157682209064 -0.77116994102897574 11.442887682884111 207 203 176 1.2051692228556068 4 14208 3 12151 5 14510 2 14274 1 14107
1316 0.4668406291702939 -0.67732533134652184 11.587952751689505 233 222 177 0.458875884798148 4 14212 3 12153 5 14508
1317 -1.0475040257188439 -0.55668653509699761 11.446194259967047 227 220 176 0.99569822969845279 4 14219 3 12161 5 14519
1318 -2.0946428074288757 -0.49620659712651499 11.433916675171236 245 240 218 1.4338979805556675 4 14226 3 12163 5 14527 2 14289 1 14120 9 10799
1319 2.2836816455112561 -0.33255920507476561 11.392711978596042 165 157 120 1.5654325263398416 4 14234 3 12168 5 14522 2 14294 6 15524
1320 2.2852336509766795 -0.33066278437780078 11.400591858802889 165 157 120 1.7855308988002219 4 14235 3 12169 5 14523 2 14295
1321 -2.6344984740735899 -0.065220036322094943 11.378256706789514 158 156 125 2.2098788124044475 6 14731 3 12178 5 13865 1 13542 10 10909 9 10053 2 13709
1322 1.0736833393562957 0.24533747393438188 11.39610136042759 239 231 192 1.0781335349692933 4 14254 3 12185 2 14314 1 14143
1323 -2.2194570898370234 0.40262626530737844 11.229654764754642 237 231 183 1.1335893150050023 4 14266 3 12191 2 14321
1324 -2.6679098992723933 0.42753574949374951 11.229632570525848 236 229 185 1.3786706439906358 4 14270 3 12192 2 14324
1325 -5.1512452150412846 0.9486323507070098 11.467927907713596 95 89 77 2.2276551526974075 4 14275 3 12199 2 14327
1327 -2.0574335397252348 -6.8804890201600708 12.818212460753173 123 150 116 1.4871526755486018 4 14316 3 12232 5 14599 6 15006 2 14370
1328 -1.7407988153632794 -6.8414485160698986 12.755673301323512 155 171 142 0.95872848434636637 7 16604 3 12234 2 14371 1 14201
1329 -3.8838064644165544 -6.7006065748261845 12.469514183548835 64 101 67 1.2062266845362799 4 14322 3 12238 2 14372 1 14209
1330 -2.3993865267284931 -6.7866736122733995 12.872963768424516 251 250 202 0.84539195896196162 4 14734 3 12240 5 14602
1331 -5.235678212854646 -6.4960979108037709 12.532556969031226 157 226 163 0.45978464215294573 4 14331 3 12248 5 14632
1332 -5.6272374347832743 -6.4213283137731443 12.548654710121596 58 102 58 1.3235976563733904 4 13747 3 12253 5 14083
1333 -2.3411326866196349 -5.4182705342380668 12.046463270855524 111 156 5 0.8697903280276762 4 14404 3 12313 5 14190
1334 6.9479145973351768 -4.878300714421127 9.5393784210921098 194 184 175 1.2517510729321935 4 13902 3 12327 5 12688
1335 6.9488141748228465 -4.7043323950061646 9.7316858544183109 218 219 202 1.4915290487892989 4 14427 3 12333 5 14198
1336 6.9488141748228465 -4.7043323950061646 9.7316858544183109 218 219 202 1.4915290487892989 4 14428 3 12334 5 14199
1337 -5.4192412891721267 -4.2442753438784422 10.791746794307906 128 172 24 0.77245787430732249 3 12370 5 14752
1338 7.4312586068580382 -4.175231484208723 9.4014039388933615 41 90 146 0.63220102353891361 4 14467 3 12374 5 14726
1339 -5.1206278919634407 -4.0769942606006326 12.470986141782889 211 236 189 2.0382640048588709 4 14040 3 12383 5 14339
1340 5.2109130851722609 -3.9558616856710929 11.393611620059948 62 156 246 2.3579351504286179 4 14497 2 14691 1 14326
1341 5.4808817547423336 -3.7710643942497475 11.396139249523841 67 159 242 0.50695946260428137 5 14756 2 14509
1342 -3.0548433499899033 -3.7132847677467673 10.90126259042869 132 165 13 0.50194925261624623 4 14520 3 12400 5 14787
1343 -3.8598515129990245 -3.1500635634633412 10.934907587245643 89 132 24 1.3606140878471926 6 15836 3 12416 5 14807
1344 -3.7247327102483982 -2.9931146613997024 11.240666387737267 116 171 55 2.3649431862523405 4 14546 3 12419 5 14450
1345 2.0373686316484929 -1.5831652021686524 11.593396260342326 255 254 233 2.013887465232437 4 14555 3 12429 5 14822 2 14535 1 14518 6 16077
1346 1.6604434153444065 -1.5493253421898381 11.712326628375674 255 254 233 0.82539433738732182 4 14556 3 12430 5 14823
1347 1.2787328552383099 -1.5299214077506953 11.714465901514854 255 255 231 0.6316953999616165 4 14558 3 12433 5 14826
1348 0.89603762101251816 -1.5085733594841571 11.722776895677862 255 255 229 0.54092845220577868 4 14562 3 12436 5 14828
1349 1.1352783020534023 -1.4796300810056637 11.680032704438478 255 255 231 0.93049103586198312 4 14567 3 12439 5 14830
1350 0.76168619574523744 -1.4449295945243104 11.777680980822243 255 255 229 0.65756632367711931 4 14570 3 12444 5 14833
1351 1.1068830039109081 -1.0324676626786571 11.534830528091218 254 245 214 1.5435859967255805 4 14618 6 15876 3 12480 5 14869 2 14553 1 14381
1352 1.10537176627281 -1.0197544050266183 11.600823770474893 254 245 214 0.53442047568102635 4 14619 3 12481 5 14870
1353 -2.4154705795605911 -1.0779894801998131 11.354333633191205 234 222 182 0.36279078405213333 4 14620 3 12482 5 15109
1354 -1.098964212578216 -0.91115422109935551 11.497790960816365 195 189 170 0.7432649626134612 4 14634 3 12502 5 14883
1355 -1.9713743278154015 -0.65603819498179661 11.493645641936217 228 216 174 1.6069894362083659 6 15889 3 12515
1357 -1.7219845762318442 -0.5135420683647125 11.436677959205808 115 111 86 1.221450892784459 4 14665 3 12528 5 14910 8 9765 9 11116
1358 -1.4111966662478872 -0.4691944314804854 11.459085289165028 234 224 183 0.74439401085708479 4 14666 3 12531 2 14573
1359 -1.4027529082162471 -0.47565997928169718 11.423100576927649 234 224 183 0.76740660470837041 6 15891 3 12532 8 9771
1360 -1.7451859496026874 0.08267235842135856 11.372938747520774 233 221 181 0.96226562974277796 4 14710 3 12572 2 14596
1361 1.8719445360631299 0.403679905776829 11.363949513961915 80 74 62 0.83889303405768734 4 14905 3 12579 1 14414
1362 -2.7523607411863731 0.44537286683351485 11.306627730188785 236 229 187 0.60927086803355113 4 14716 3 12581 5 14939
1363 -4.1970046796629186 -6.6458587444037365 12.436758697886585 163 225 160 1.2814235794827193 4 14735 3 12604 5 14980 2 14627 1 14446
1364 -5.5644740548367553 -6.4552459887551192 12.519033018115801 154 228 151 1.4841751049203467 4 14333 3 12607 2 14374
1366 7.4253415163222671 -4.1647993463821953 9.284619987687897 44 89 148 1.0585231288932386 4 14804 3 12672 5 14725
1367 -7.3072975360898136 -4.1495363216063792 11.754478256977402 150 161 127 1.6129836969650835 4 14810 3 12677 1 14752
1368 7.3114868499441288 -4.1820946489133668 12.856997882013003 54 50 41 0.77867155472407634 4 14486 1 14489
1369 5.1597099984939723 -4.0037672445619057 11.464399566278654 11 70 136 2.0206709461045502 4 14813 1 14484
1370 4.766565048584992 -3.8725930300976579 11.171452393167852 114 181 246 0.90213401344128752 4 14818 3 12688
1371 8.1028344430630632 -3.4781919471238254 12.922820727453393 59 52 44 2.3382380336908763 4 14831 2 14926
1373 5.5817104506411441 -3.16239291707336 12.009983277596145 185 180 1 2.1759739027345453 4 14837 5 15069 2 14936
1374 -2.336033825321286 -1.4240439587426452 11.457705910310372 233 227 180 0.66099578834855344 4 14848 3 12724 5 15089
1375 2.2364257052016185 -1.3344833032484895 11.481005198007894 233 225 186 1.7231563296527554 4 14849 3 12726 1 14542
1376 1.8870140146417234 -1.2097236093818333 11.642737956730421 255 255 221 0.58874160172111956 4 14853 3 12732 5 15092
1377 1.5197406684918282 -1.1906125346819219 11.650671489552463 255 255 219 0.65633441194700182 4 14856 3 12733 5 15093
1378 1.1510629614088601 -1.1695496274853092 11.665452431804731 255 255 219 0.54414992361597925 4 14859 3 12736 5 15096
1379 2.0662482095498356 -1.1889630726718265 11.523561899221862 255 255 221 1.92737911739068 4 14858 3 12737 2 14757 1 14561
1380 2.0746188395552698 -1.1751816501236616 11.627509238527425 255 255 221 0.57671514500134435 4 14857 3 12738 5 15094
1381 1.3382606176926659 -1.1339694966762639 11.649122500740635 254 255 221 0.58145074483274517 4 14866 3 12744 5 15103
1382 0.7462129163343687 -0.99923009240671223 11.54920224091828 241 235 197 0.098490539720385809 4 14874 3 12757 1 14585
1383 -1.8077501737243447 -0.87484124650821093 11.436222649061168 238 234 217 0.53364014896439027 4 14878 3 12760 5 15112
1385 -2.1347270523243234 -0.45278547238176325 11.335321897536835 229 222 180 0.8680246771875727 4 14890 3 12780
1386 -1.9376812973849351 -0.19803451005967088 11.340855764972046 230 222 177 0.84965316390346646 4 14892 3 12782 5 15131
1387 1.2920167673996785 -0.11660397148097945 11.446318022686015 243 236 190 1.3400333161674602 4 14895 3 12785 2 14853 6 16169 1 14685
1388 0.56384743651322822 -0.063007977692988049 11.492424985274821 240 233 189 0.79973575442368572 4 14896 3 12789 5 14927 2 14856
1389 1.9355445924359729 0.21189202575948096 11.357282342683106 165 165 141 2.2617406138103084 4 14904 3 12793 2 14961
1390 -7.4473615437979808 -9.0403913248847978 13.70849500023907 96 90 76 0.79510813888687304 6 16199 3 12794
1391 -2.6621945890285006 -6.7105364487562618 12.488598787521189 79 114 81 1.5604347906824503 4 14733 3 12799 1 14204
1392 -4.0868855162950322 -6.6100560889030984 12.455547744436997 73 110 69 0.52706681001285183 4 14736 3 12800 5 14982 2 14878 1 14707
1393 6.981865817072765 -4.5284800073243954 9.6854741179272512 216 221 214 0.17639871559073086 4 14945 3 12838 5 15025
1394 4.8297860012808131 -4.0121563714489259 11.49313214390572 120 172 250 0.93225605291176405 4 14967 2 14682
1395 5.1303440445026469 -3.6592761249281844 11.031537492574561 83 112 136 1.9779850701151407 4 14977 3 12873 5 15333
1396 1.107151601529677 -0.90928294493353656 11.613950771908902 235 223 181 0.57973486163050325 4 14999 3 12889 5 15218
1397 -2.7953762489489109 -0.84890539631907058 11.464164787104943 230 223 178 1.7700024151038403 4 15005 3 12893 9 11409
1398 -2.7605231246551556 -0.71582513075023313 11.348257285840294 234 222 180 0.69647421514151076 4 15012 3 12899 5 15237
1399 -2.7460924923322385 -0.15045062453004621 11.313643900379548 224 217 175 0.8571695057511689 4 15029 3 12911 5 15251
1400 2.0131352395452358 -0.024119934419221001 11.427232278481585 230 223 181 1.112124117997304 4 15030 3 12916 5 15247
1401 2.3087552599207322 0.063568372547482599 11.360168229551041 236 227 191 1.0951019746152351 4 15034 3 12918 5 15250
1402 -1.9005508516700842 0.085982021803353792 11.409152871843041 237 225 183 0.85736546340857867 4 15038 3 12921 5 15263
1403 -1.9005508516700842 0.085982021803353792 11.409152871843041 237 225 183 0.85736546340857867 4 15037 3 12922 5 15262
1404 1.1022515262043875 0.11382838458626676 11.381793779295505 234 223 180 0.60632767516457398 4 15039 3 12923 2 14957 1 14783
1405 0.62752335371581103 0.14788412484455904 11.392903621308562 232 225 183 0.48813636352687223 4 15041 3 12927 1 14785
1406 -2.1564333870107002 -6.8353248260645163 13.064636588968403 246 252 209 1.701059395518721 4 15049 3 12934 5 15271
1407 -3.7886495814413395 -6.4797975219045272 12.071122991726385 210 210 80 1.8990967023385266 4 15050 3 12935 5 15275 2 14970 1 14790
1408 -1.938500741064874 -6.5645129030603968 12.47434171750573 125 163 128 1.7519695123077337 4 15052 3 12936 1 14792
1409 -4.3461447167114331 -6.3829532395682049 12.42772476718042 138 197 118 1.3360600726125125 4 15053 3 12939 2 15041
1411 7.5219268863514559 -4.1778572870611699 9.2773371858425726 42 86 141 0.69881088676196434 4 15095 3 12978 5 15317
1412 -4.5098663917959616 -3.154781778103307 11.172991079294579 192 208 83 0.44861164767944817 6 16275 1 14832
1413 -3.001540667703618 -3.1745718761870512 11.238771183863594 58 122 61 1.2792150080583407 4 15111 3 12995 5 15208 2 15022
1414 4.9130513913060438 -3.1177896357659192 11.536453351931476 192 188 19 0.038521767717783588 4 15113 2 15074
1415 4.9130513913060438 -3.1177896357659192 11.536453351931476 192 188 19 0.038521767717783588 4 15114 2 15073
1416 1.3925207429842597 -1.6833239015973231 11.692811049025705 207 201 165 1.6123976161089568 4 15117 3 12999 5 15344 2 15024 1 14836
1417 -1.8786290707299467 -0.060766918291341399 11.272775541620033 232 225 181 0.98212410581845144 4 15146 3 13020 5 15385
1418 -4.2349584192321075 -6.6020502616687198 12.428475332670699 145 219 137 1.7079674898187227 4 15149 3 13023 5 15390 1 14855
1419 -3.5374148994012633 -6.1013281280323755 12.039257974144148 152 195 53 0.53669368322067967 4 15206 5 15469
1420 -6.3101592301782672 -6.0027825932687877 12.203080956207254 226 234 80 1.9774166004912281 4 15057 3 13026 5 15295 2 15043 1 14862
1422 -6.9665404222725806 -5.6024468761632855 12.190036796081639 135 175 122 1.5391079296083836 4 15067 3 13033 2 14983 1 14804
1423 -1.8223821258271258 -4.2980866637493129 11.877689288718773 8 29 1 1.9135522601159516 4 15174 3 13061 5 15325 2 15056 1 14877
1424 -1.8232237463383454 -4.3012147837585379 11.889196235444402 8 29 1 1.6922449737038106 4 15175 3 13062 2 15057 1 14878
1425 7.5164878062981977 -4.0334517824653799 12.9307745760497 136 133 118 2.380008950807261 4 15176 1 14826
1426 7.8012778604386925 -3.5548851781895028 12.052198236958334 163 155 132 0.1842641060497828 3 13072 5 15425
1427 -1.9075986374753264 -3.3683278090747031 11.62515954695675 105 154 29 1.9638788665526801 4 15183 3 13074 5 15429 2 15071 1 14929
1428 -5.6419549171110024 -3.1453568218954073 11.589079953540622 85 136 79 0.46360885259998036 4 15112 3 13076 5 15340
1429 -4.7253102269522342 -2.896582180395419 11.521251710075173 197 213 42 1.2896753728164909 4 15116 5 15343 2 15076
1430 7.4617716082153622 -5.3383769200129372 12.372207945325213 104 97 87 2.0932211496076678 4 15212 3 13096 5 15471
1431 -1.8954267010095118 -4.4286214384993237 11.555447938880324 173 195 0 2.3588020663025611 4 15221 3 13109 5 15478 2 15113
1432 -2.2889428015210864 0.24811962237208673 11.303424162412753 231 224 182 2.1874476499627749 6 16510 3 13133 2 15135
1433 -7.0548184068801705 -5.1066034247447183 11.857016374803594 144 185 113 1.9369669030363248 4 15255 3 13140
1435 -5.5814826163176816 -4.2597009193009407 12.235586547399697 152 193 35 2.0479924931877975 4 15261 3 13148 5 15515
1437 -1.8548958096334671 -3.2127899437048111 11.865757246403378 89 122 97 2.370452350429697 4 15271 3 13159 5 15517 2 15158 1 14971
1438 -4.0753477215524159 -6.7693558310522546 12.319550904308576 75 69 57 0.96873961460921654 4 15278 3 13168 2 15169
1439 -2.5802108361025966 -4.3326293736664852 12.08455135480783 150 179 131 1.9955536678293875 4 15292 3 13177 2 15176
1440 -5.1665487096910789 -4.2450842049423647 12.776456964425844 150 210 144 1.1852948983554665 4 15294 5 15544
1441 8.6627636491749573 -3.7802059267354675 12.804006862056882 232 225 191 0.43326381105581618 4 15269 3 13180 5 15483
1442 5.0330211894794044 -3.2493124252780783 11.218217097921507 171 168 15 0.56034734016874754 3 13181 5 15556
1444 -3.8638288564068151 -5.8898978687645185 12.050404756301758 126 165 22 1.4775427265240317 4 15283 5 15533
1445 7.4859681582466244 -4.4018019679074802 8.96737554539882 181 175 149 0.93266112768074283 4 15306 3 13195 5 15552
1447 -3.4894163927683985 -3.1123686239049411 11.168138135545892 124 169 18 1.3509933711162263 4 15309 3 13198 5 15558
1448 -2.0559399365468352 -6.8013840641156742 12.454501445839938 158 170 142 1.7506378985010245 4 15313 3 13201 2 15192 1 15003
1449 -3.636337471592261 -6.390287721532748 12.217643083162638 152 197 16 1.4513311761503422 6 16590 2 15194 1 15013
1450 -2.7715396818505997 -1.4145433739219802 11.636223702946001 236 228 182 0.79613608495412014 3 13207 10 12451
1451 -2.7715396818505997 -1.4145433739219802 11.636223702946001 236 228 182 0.79613608495412014 3 13208 10 12450
1452 -1.5817024375469451 -5.5933012008477361 12.263743328774343 89 83 71 2.6053758494913746 3 13213 2 15204 1 15021
1454 -1.4342122148304925 -4.3888366613379253 11.906316871536031 86 80 68 0.62455833008945749 2 15207 5 15582
1455 -3.0704056875567476 -6.8956490097593104 12.528325916829907 82 75 65 1.6049649700917883 4 15320 3 13222 2 15214
1456 -2.0802575983141351 -3.6735135279630295 11.60049705509743 132 175 34 2.3443772616650618 4 15352 3 13237 5 15608 1 15045
1457 -2.0803571632323119 -3.6749380922785413 11.600040706546455 132 175 34 2.2634693000199424 4 15353 3 13238 5 15607 1 15044 2 15222
1458 -2.6166576519970612 -2.5854432039150828 10.737046874264946 73 69 60 0.0051221054615547719 3 13241 2 15230
1460 8.088378883503502 -5.3944820877724373 9.9651288756692615 0 0 0 0.19324836211664423 4 1884 6 9740
1461 -5.6434712642900138 -3.1468324797565073 11.349897588671922 127 193 135 0.32819063538766202 4 5655 3 5200
1462 8.4228715166593773 -2.3217581286787361 12.00763945841754 219 210 192 0.62059733441777998 3 9378 8 3678
1463 5.3504942998595002 1.040362645853349 11.040647161225911 92 86 72 0.2366032828834583 3 11577 5 13909
1464 4.8790615581485595 -3.6751871148614397 11.369409515547911 121 184 251 2.1202094786009975 4 14976 2 14921 1 14755
1465 7.1044381371809591 -4.6601596858429186 9.1288836394484942 158 156 145 1.2979883339409208 6 16328 3 13048
1467 -5.0785476318721106 -5.993097025343439 12.060177745335809 237 233 103 1.5058586820731692 4 15338 5 15590 2 15215
1468 -1.8430990637109799 -7.1108455388452549 12.662019312849447 135 168 135 1.1614435913948309 4 641 5 1053 2 8489 1 8672
1469 -1.8257055341253603 -7.0736254214470815 12.719612659002546 121 159 123 1.0503885215935898 4 659 6 900 5 1072
1470 -3.4527052546685852 -7.2680332031841077 13.587850313871646 68 62 50 0.74519989207803239 3 639 4 668 5 1109
1471 -2.8584976007214005 -6.751504279162547 12.496648336431164 68 64 47 1.4671414274829682 4 764 5 1233 2 697
1472 -3.8817991860033421 -6.6139333734659553 12.349296774229868 162 197 68 1.5539622503762072 4 8165 5 1346 2 8590
1473 -1.8192792691532647 -6.2340905252183756 12.342302965748365 89 131 51 0.42645943566350364 4 1275 6 1416 5 1704
1474 -1.9222939950953828 -5.9740590023064088 12.141610842302239 91 140 14 0.44647766841474629 4 1579 6 1654 5 2070
1475 -3.3525049601811352 -5.6165071372696733 11.124965998987312 131 172 5 1.0907333603209672 4 1780 6 1835 5 2424
1476 -6.2251848023020182 -5.8391570017645513 11.973184133252623 122 162 0 0.92725728398348384 4 1690 5 2449 2 1537
1477 -6.3018773943273709 -5.5402688867974224 11.854612729276099 179 216 77 0.7841404433249487 4 2058 6 2608 5 2813
1478 -3.6144029111344373 -5.2343096925338068 11.028841926091632 119 165 0 1.3717291212481559 4 2346 5 2959 2 2154 1 1774
1479 -1.7916840533718614 -4.9801210013643242 11.746517572893003 144 187 0 1.0676823104695752 3 2677 6 3020 5 3374
1480 -1.7222883442357155 -4.9641751275057011 11.87166220564677 124 163 0 0.75320757182654263 4 2920 6 3104 5 3422
1481 -1.9255031300076599 -4.799400569345841 11.594700811631668 139 174 22 1.4441820499006965 3 2938 5 3633 1 2532
1482 7.2799101139874853 -3.8412888951103072 12.548587383602991 0 0 0 0.12533533748890424 4 4729 6 4207
1483 -5.2684924504034205 -4.0763422803221516 12.663285942754708 45 62 26 0.71042658968949957 4 10465 5 4932
1484 -3.6809022103567033 -3.8502603523772576 10.783800925559847 235 253 200 1.0630331374976518 3 4248 4 4596 5 5087 2 4346
1485 -1.5579625642370474 -3.7656323905389355 11.632516302984195 116 150 29 1.5323175918649088 4 4793 6 4794 5 5111
1486 -3.8399690485608442 -3.6854591127930005 10.80896915154381 135 172 22 0.957642177720882 4 4871 6 4883 5 5328
1487 -2.6071604718493533 -3.4568198051607029 10.922629870863801 208 228 184 0.28629084723520909 3 4875 4 5217 5 5563
1488 -1.4494418113142089 -3.3032938904732347 11.803682511741464 133 182 144 1.1144005865675926 4 5463 6 5422 5 5684
1489 -5.4786300900271341 -3.43925593066046 10.891571357340604 87 137 75 0.7396400498079293 3 4892 4 5245 5 5742
1490 -4.9114277476103787 -3.2315377992421173 11.336827168718447 156 179 0 2.9481626642051388 4 5567 5 5951 2 5225
1491 -4.7948864570979515 -3.1630337401101603 11.174967326776178 162 186 0 0.95896772768543959 3 5193 4 11054 6 5785 5 6021
1492 -5.5320771148874401 -3.1109354437284189 11.329062556677899 132 211 144 0.64481802504012464 3 9255 4 11095 5 6093
1493 -4.681440983768427 -3.0165434310949033 11.430903682881969 187 196 25 0.16986769175973437 4 5802 5 6152
1494 -4.7502638316975228 -2.9583868899294767 11.419872909431524 140 177 5 1.1839489720951604 3 5368 6 6043 5 6206
1495 -4.8202621203470777 -2.9079676557169813 11.533720965209092 224 234 72 0.35469438291901828 3 5394 4 5881 5 6225
1496 4.92471305228755 -1.8462141510705361 11.874424165738363 82 74 61 0.0048405067313548045 5 6406 2 5871
1497 2.2434167309628612 -1.7148292588961334 11.586394850045618 245 234 189 1.1681266764629126 3 5520 5 6471 2 5909
1499 1.6512202854830629 -1.4404617227390593 11.539913242487964 100 84 58 1.7769375474841274 3 5578 5 6571 9 3440
1500 1.6525638490392554 -1.4373581575213668 11.563877983347854 100 84 58 1.4795562813207579 4 6186 5 6572 2 5985 1 5365
1501 9.5064937379600423 -0.93749846859607144 11.922178874590038 224 217 199 2.2078425835957338 4 6267 5 6604
1502 -2.5897633575961887 -0.41904084657064899 11.428647019103577 160 152 116 1.502152903142687 4 6408 5 6865 9 3587 10 3861 11 4408
1503 4.5261592083039872 -0.048540232222352486 11.494314661037166 79 71 58 2.0277688650561001 4 6458 6 7125 5 6872
1504 1.9181758380278915 -0.019902229690174966 11.365671960743725 237 228 189 2.3938796156354609 4 6475 5 6915 9 3861 1 11719
1505 5.8584523752958431 1.1775867835153724 11.165646385974012 92 84 71 1.6100275516970164 6 7778 5 7288
1506 -5.4234684667204487 2.6119483163181316 10.798060019562719 62 56 44 0.71493136829067461 4 7353 5 7931
1507 2.9518372107247677 -9.6719255262124602 13.948088860742891 119 111 98 1.3156444159597593 6 9486 5 8419
1508 2.9495611086443003 -9.7038146011944661 14.046421152796826 119 111 98 1.6394150212418828 3 6357 4 7880 5 8420
1509 4.2153600094689541 -9.0218530833812807 13.837684168435633 117 109 96 1.5270947121745246 4 7934 5 8474
1510 -2.3294762540254887 -7.9892638352208731 13.768051350375888 95 87 76 0.86273299077723065 3 6448 4 8014 5 8624
1511 7.0403729525591094 -7.1545989702657486 13.325998497077235 126 118 105 2.6688069554463385 6 741 5 8675 4 717
1512 -2.1054940608267088 -7.1237596494562618 12.819298738427664 189 227 190 0.76019629757724561 3 624 4 8073 5 8699
1513 -4.1662288230946825 -6.6313864783520922 12.455197316979405 168 223 148 0.85721406380248422 4 8168 5 8852 1 8795
1514 -1.8084286795516282 -6.549745297202473 12.697899803868971 141 183 141 0.45783298237632475 3 928 6 1256 5 8880
1515 -2.1032345237114893 -6.2765455517122977 12.029782812004866 116 155 26 0.9994189286475903 4 1098 6 9943 5 8960
1516 -5.1131466376506092 -6.1667393795439782 11.934452787025814 190 205 54 0.75332995597317898 4 8412 5 9112 2 8789 1 8990
1517 -5.0537400933346692 -5.9464250715597373 11.843091357963379 254 249 97 0.96409080817194759 4 8619 5 9244 2 8980
1518 -4.966336319938871 -5.858230962291163 11.780939890131348 246 242 83 0.29117275018343863 3 7000 4 8664 5 9311
1519 -6.4254420552523248 -5.9125489078119253 12.058322575190946 52 91 39 1.4290474887027165 4 8657 5 9348 2 9048 1 9290
1520 -2.8467252532286467 -5.3389706251301003 11.240184505236742 195 239 144 0.65536871019202925 4 2217 6 2299 5 9602
1521 6.9477168182218234 -4.7232744049323792 9.4175288112108699 37 97 165 0.45244154463879444 3 10488 4 9514 5 9617
1522 -3.6346895516674578 -5.2132863074359079 11.427942623493273 115 164 0 0.73494000024072981 3 7533 5 9753
1523 -2.0094740950471084 -5.1715357127846415 11.727880016363425 147 180 1 0.75944995589421571 4 9335 5 9773 2 2494
1524 -2.0094740950471084 -5.1715357127846415 11.727880016363425 147 180 1 0.75944995589421571 4 9336 5 9774 2 2495
1525 -1.8881179546290983 -5.0993999737358031 11.685170652732678 219 224 18 0.95342798093807268 3 2505 4 9408 5 9827
1526 -3.4826150436564385 -5.012754505692671 11.04544057849899 252 255 238 1.5772272056261414 3 7662 4 9399 5 9893
1527 -2.0381563272262779 -4.8527436655268836 11.554058012972614 173 192 2 1.5275499268930197 3 7902 6 10804 5 10049 2 2942
1528 -1.7595729908521303 -4.8507316287177069 11.747905603277346 223 219 38 1.5129922760826044 3 7933 6 10850 5 10055
1529 -1.8547479211584603 -4.8282803750013237 11.657968461895699 211 215 35 1.0066209201958138 4 12575 5 10078 1 10036
1530 -3.1749918520253875 -4.7944562887620501 11.053521206805833 114 148 0 1.2792018500436744 4 9616 5 10100 1 9951
1531 7.8670477012394411 -4.1633189547691538 9.4940552561820439 54 88 129 0.41995830364763831 4 10186 5 10196
1532 -2.0833132812566726 -4.6566867541558912 11.570639682027842 213 230 84 1.5320173931363443 4 9832 5 10252 2 10074 1 10218
1535 -3.5995795458249567 -3.9334731259907816 10.795774186591444 127 157 0 0.98941239462101116 4 10494 5 10899 2 4228
1536 -3.1587546975234173 -3.525463946185849 10.813660464378016 135 176 1 1.6646042364703864 4 10796 5 11197 2 10952
1537 -3.8455012850240475 -3.1907933868389886 10.967866483415229 164 194 39 0.20224667060567333 4 11035 5 11448
1538 -3.4024429841083061 -3.1382401050747362 11.062552213359126 122 164 3 0.47272748416591753 4 11067 6 12079 5 11466
1539 -3.4024429841083061 -3.1382401050747362 11.062552213359126 122 164 3 0.47272748416591753 4 11068 6 12080 5 11467
1540 -1.35435696679856 -0.53365725147042653 11.446841587970797 252 236 184 1.1156830587924798 6 12526 5 11763 2 11551 9 3598 8 3755
1542 1.8890871247699104 0.034833555786070947 11.363686671702622 243 230 188 1.7033260814652076 3 9540 6 14720 5 11822 2 11605 8 7524 9 8373
1543 1.5750182802494552 0.20096317445817635 11.346088361905602 210 208 187 1.6054871314113115 4 11493 5 11856 2 11633 8 4076
1544 1.5776890271640285 0.20403007459206957 11.356643516200171 210 208 187 1.5846907045484777 4 11494 5 11857 2 11634
1545 0.82910672707072053 0.21741133105584298 11.363123753488303 174 165 129 1.1201293380759656 4 11496 5 11862 2 11640 6 12660
1546 -1.507942244508603 0.34159335108362332 11.328522242624205 197 189 153 0.91239685525293412 3 11557 5 11883 8 7510 9 3866 4 11504
1547 -2.6697636880971665 0.40489853429837019 11.320000447342746 231 226 205 1.6071871650885821 4 11508 5 11893 8 7497 10 9128 11 9112
1548 -5.3803201891120089 1.3421523197972125 11.246463314599941 81 73 60 1.4724568857640481 4 6900 5 11964
1549 -5.3539629710867089 1.3903936737147136 11.194034714051247 82 74 61 0.47869173817311905 3 5953 6 14813
1551 11.380894920546719 -9.6993214717127501 14.011783447049881 97 91 77 0.20387357701838119 6 13174 5 12197
1552 -1.9785020678132446 -7.048627136680488 12.735248886386893 145 170 138 2.126771697744569 3 9827 5 12300 2 12189
1553 -4.0591964952022428 -6.6200967564611224 12.489651772842601 72 99 58 1.2442086778731418 4 8182 5 12366 2 12229
1554 -3.6692475011970003 -6.4354849568466088 11.991984331684796 138 162 2 1.8972952841868722 3 9885 5 12387 2 12237 1 12482
1555 -5.1546171408845254 -5.6180987677297214 12.024293392099899 212 216 13 0.34909951537997719 3 10182 5 12705
1556 8.5762325802154944 -4.5883247552353437 10.034031883512501 121 115 99 2.7980953136205597 4 12627 5 12804
1557 -2.0983340921842601 -5.0262785076645047 11.577295817170778 222 227 38 0.63267410062842178 3 10421 6 13809 5 12854
1558 -1.8989821338817758 -4.8659872308437038 11.613329768738161 221 221 42 1.3524367071708483 3 7891 5 12935 2 9899
1559 -2.8562906928678036 -4.9188772057956616 12.163507262227853 18 30 16 0.91385025639278417 4 12560 5 12956
1560 -1.9879788340965694 -4.7904073837476853 11.574858372658749 170 187 49 0.8791575857453775 3 7959 6 13915 5 12977 2 9970 1 10066
1561 -3.1990216518251247 -4.7770925465322049 11.042426734182216 211 243 204 0.82353279364978249 4 12563 5 12983 2 9883
1562 -3.1177837537932627 -4.7460414858320403 11.069204956258579 115 138 3 1.2716097265806519 4 12579 5 13007 2 9907 1 10006
1563 -3.1171569000629478 -4.6443689868876481 11.065994153025509 84 108 0 1.7790064690213603 4 12644 5 13070 2 10000
1564 -5.5320067590414954 -4.455780469267145 10.756144899749486 89 127 18 1.1439485541037244 3 10722 4 12736 5 13188
1565 -2.6406536646941086 -3.4562731087531668 10.916292973851995 63 80 62 0.75437503655138938 3 11282 4 13313 5 13611
1566 -2.0539664292955977 -1.4848670638184669 11.542857642662197 212 200 158 0.93420601462495778 4 13508 6 14674 5 13809
1567 -1.4372126193673858 0.3391826954939321 11.323066376803427 189 176 142 1.0274307687230884 4 13585 6 14761 5 13884 2 13729
1568 -1.5586000597092549 0.34491255270031984 11.328159853756681 163 155 119 1.6499426207401668 3 11559 5 13887 2 11649 11 9132
1570 -4.2319407686844137 -6.5991409449609328 12.495756532375546 179 251 171 1.1179103251087983 4 13730 5 14053 2 13886 1 13788
1571 -4.9974023866316637 -6.6137514668937305 12.532145742344861 71 64 48 0.59918373293220595 3 11684 4 13729 5 14055
1572 -6.4478689035047019 -5.9638871745002398 12.279280325382278 198 214 69 3.3494788436898446 5 14139 2 13934
1573 -5.3188744683848999 -5.6748251752978245 11.964901190664154 208 216 27 1.3314967007230656 3 11777 5 14161 1 12710
1574 6.9493718675323404 -4.6882053077849015 9.473567205327738 223 218 192 0.57785611274479465 3 12332 4 14422 5 14195
1575 -3.6027584531969064 -4.757146629482861 11.947361077890207 156 194 111 0.86738936293303448 3 11862 5 14260
1576 7.2350738839731905 -3.9377584885312329 12.452488395080335 187 181 167 1.808560278934636 4 13084 6 15287 5 14303
1577 -4.9924312979656582 -3.8316511138604508 10.904132144977703 99 134 0 0.51042037519151162 4 14063 6 15358 5 14365
1578 -3.1910366012550262 -3.0653707382770472 11.356207577610443 15 39 5 2.136443316801814 5 14441 2 13588 1 14058
1579 -4.4915390490457625 -2.9356665551271295 11.632890401571158 147 173 25 0.076227334688219309 4 14172 5 14453
1580 -3.7150493789374357 -2.9020077634937476 11.125613704500458 176 229 169 1.5358325959133046 3 12100 4 14176 5 14458 2 13624
1581 1.5458933130974828 -1.774181367232174 11.666134910920196 252 255 227 1.0208424133858152 6 15454 5 14460 1 14077
1582 -0.55227502741108558 -1.1946556319966541 11.534808307133909 160 149 119 0.45884226583655979 4 14202 5 14491 8 9419
1583 4.9071276846558263 -0.89814110984787687 11.630878308986455 111 103 90 0.8806058729729721 4 13533 5 14492 2 13688
1584 -1.7939181409531177 -0.41830801136318346 11.421721586951675 240 227 185 1.255150154264052 4 13557 5 14531 8 8853
1585 -1.7009107992136558 0.35116403042672695 11.416432499597178 238 227 182 0.1343211461898752 6 15546 5 14555
1586 5.3801382819699022 0.99394799622103291 11.202456724751547 108 98 86 2.2515121102876234 6 15555 5 14557
1589 -2.1129988547504706 -7.1148794933321629 12.705583670243568 72 68 57 0.3432610341558599 7 15745 5 14584
1590 -2.0576058896957581 -7.0945656342344776 12.734498895309077 166 200 168 1.7437890208331683 4 14298 6 15654 5 14585
1591 -2.990272857398216 -5.5198111405966452 11.174512625679183 177 213 47 0.77963379373337671 4 14389 6 15120 5 14672
1592 1.37064987533649 -1.6098124865062844 11.65442898494193 237 224 182 2.3923745028575687 4 14554 5 14821 2 14534 1 14369
